ply
format ascii 1.0
element vertex 493
property float x
property float y
property float z
property float nx
property float ny
property float nz
property uchar red
property uchar green
property uchar blue
end_header
-0.16742053627967834 -0.29353034496307373 0.027516372501850128 0.5907111688193951 0.8068830863464652 -1.6342556609329373e-7 254 0 0
0.02871544659137726 -0.24981500208377838 0.14507465064525604 0 0 1 254 0 0
0.02569950930774212 0.22074441611766815 0.06769292801618576 0 1 0 0 0 254
-0.11498379707336426 -0.2810772657394409 0.1612425148487091 0 0 1 254 0 0
0.4266144037246704 -0.12953166663646698 0.01669454388320446 1 0 0 254 0 254
0.2468663454055786 0.2076454907655716 0.0008616059203632176 0.6925472713912184 0.7213724952398572 3.110369297280712e-11 0 0 254
0.096763014793396 -0.22757776081562042 0.10080572217702866 0 1 0 254 0 0
0.15388181805610657 0.016710970550775528 0.15031284093856812 0 0 1 0 0 254
0.012154585681855679 -0.10478643327951431 0.11127765476703644 0 0 1 0 0 254
0.18861939013004303 0.22599215805530548 0.13533756136894226 0.3670196907405644 0.9302131726699532 1.0761703751688897e-8 0 0 254
-0.1395670771598816 -0.2237251251935959 0.042733196169137955 0 -1 0 0 254 0
-0.3899822533130646 0.05132230743765831 0.08253337442874908 0 -1.8259608935977664e-8 0.9999999999999998 0 254 0
-0.46805626153945923 -0.2165757268667221 0.01673007756471634 0.9099720934611971 -0.4146694938403915 2.8408538425440034e-9 0 254 0
-0.30522072315216064 0.09295033663511276 0.11681032925844193 0 1.4039852658242897e-7 0.9999999999999902 0 254 0
-0.3239855468273163 0.11008518934249878 0.12526030838489532 0 1.4039852658242897e-7 0.9999999999999902 0 254 0
0.47330591082572937 -0.2774316966533661 0.10319942981004715 1 0 0 254 0 0
-0.12113156169652939 -0.10136832296848297 0.05113069713115692 0 0 1 0 0 254
0.482880562543869 -0.28322482109069824 0.0884341299533844 1 0 0 254 0 0
-0.4608508050441742 -0.27869683504104614 0.10524642467498779 0.9140767699036424 0.40554119238681996 0 254 0 0
0.48393189907073975 -0.025606483221054077 0.06483906507492065 1 0 0 254 0 254
0.07687439769506454 -0.2700585424900055 0.05001915246248245 0.19300486638984843 0.9811977994012404 5.589333582885148e-10 254 0 0
-0.09205546975135803 -0.3036828935146332 0.11663737893104553 0 0 1 254 0 0
0.49362629652023315 0.25609445571899414 0.09078215062618256 1 0 0 254 0 254
-0.4071704149246216 -0.07949695736169815 0.1689266860485077 0 0 1 0 254 0
0.15878763794898987 -0.29741519689559937 0.0020799566991627216 0 -1 0 0 0 254
0.4595368206501007 0.24218648672103882 0.15006333589553833 0 0 1 254 0 254
-0.10227905213832855 -0.3141631484031677 0.1308550089597702 0.8135489981629082 0.5814963693679683 9.359249115709568e-10 254 0 0
0.46716585755348206 -0.09950461983680725 0.025675535202026367 1 0 0 254 0 254
0.23478880524635315 -0.05033068731427193 0.027545606717467308 0.8179986639242368 0.5752201194483375 6.116521099985642e-8 0 0 254
0.014528644271194935 -0.02103034220635891 0.17359553277492523 0 0 1 0 0 254
0.24851787090301514 -0.08280862867832184 0.10738818347454071 0.8179816084951914 0.5752443725614181 -1.9869729516410197e-7 0 0 254
0.43905574083328247 0.09059006720781326 0.009118853136897087 1 0 0 254 0 254
0.43935611844062805 0.14218494296073914 0.055833056569099426 1 0 0 254 0 254
0.0013607743894681334 0.2611328065395355 0.10291501879692078 0 1 0 0 0 254
0.01002068817615509 -0.016881762072443962 0.10811937600374222 0 0 1 0 0 254
-0.37525883316993713 -0.02254798263311386 0.10394002497196198 0.9246705492238587 -0.3807681386330098 -2.727779342475638e-8 0 254 0
0.4609330892562866 0.13472701609134674 0.038529329001903534 1 0 0 254 0 254
-0.24785269796848297 0.07248866558074951 0.11501916497945786 0.9026681142781413 0.43033739724261044 -1.2110243418364135e-8 0 254 0
-0.1004948765039444 -0.2825172245502472 0.13021807372570038 0 0.000009177259016337374 0.999999999957889 254 0 0
0.02820916846394539 -0.13025669753551483 0.049653664231300354 0 2.8395797357915165e-7 0.9999999999999598 0 0 254
0.4962668716907501 -0.02244303561747074 0.0382256805896759 1 0 0 254 0 254
0.4015674591064453 -0.3055179715156555 0.14916466176509857 0.26127495774694964 0.9652644178950811 4.835609026686717e-10 254 0 0
0.020751088857650757 -0.25354519486427307 0.14468811452388763 0 0 1 254 0 0
-0.30281639099121094 -0.24785761535167694 0.05617916211485863 0 1 0 254 0 0
0.41836678981781006 -0.0032357024028897285 0.02238555997610092 1 0 0 254 0 254
-0.3301607072353363 -0.21682465076446533 0.14573894441127777 0 1 0 254 0 0
0.03887120261788368 0.22689223289489746 0.05790899693965912 0 1 0 0 0 254
0.2586260139942169 0.18132059276103973 0.15320061147212982 0 0 1 0 0 254
0.16408893465995789 -0.1977439671754837 0.112205870449543 0 0 1 0 0 254
0.4936329424381256 0.10928649455308914 0.08365178853273392 1 0 0 254 0 254
-0.15323622524738312 -0.07983193546533585 0.07394096255302429 0.9026345758592291 0.43040773978104707 9.457164095887722e-9 0 254 0
-0.32306167483329773 0.18460410833358765 0.07062423229217529 0.9026775219178498 0.43031766338862976 -9.067793485512895e-9 0 254 0
0.20056186616420746 -0.19178031384944916 0.0718589648604393 -0.8134969909369542 -0.5815691237819638 -1.0347574816093219e-9 0 0 254
0.45640209317207336 -0.06094948202371597 0.12053080648183823 1 0 0 254 0 254
-0.43484967947006226 -0.22691653668880463 0.05550876632332802 0 1 0 254 0 0
0.2148665189743042 -0.259339839220047 0.06973886489868164 0 -1 0 0 0 254
0.05587148666381836 -0.2901531755924225 0.14298681914806366 -0.6057310756985497 -0.7956694438854913 1.7561481677445328e-7 254 0 0
0.14876708388328552 -0.03653651475906372 0.0616973340511322 0 0 1 0 0 254
-0.00202685478143394 0.04993165656924248 0.04456515982747078 0 1 0 0 0 254
0.48121047019958496 -0.12123146653175354 0.006212051957845688 1 0 0 254 0 254
0.4427277445793152 0.1848360300064087 0.019189247861504555 1 0 0 254 0 254
-0.3656589686870575 -0.05005555972456932 0.05056455358862877 0 0 1 0 254 0
-0.39659354090690613 -0.19384199380874634 0.03385154530405998 0 1 0 254 0 0
-0.17112085223197937 -0.1965733766555786 0.0020344406366348267 0 0 1 0 0 254
-0.06670399010181427 -0.22624540328979492 0.053546417504549026 0 0 1 0 0 254
0.24084550142288208 -0.2264239341020584 0.034118637442588806 0 -1 0 0 0 254
0.22450654208660126 0.1865207701921463 0.09830395877361298 0.6883205091219446 0.7254066974615697 -7.247251599026162e-8 0 0 254
0.4171158969402313 -0.25133830308914185 0.022671125829219818 0.5118379718147704 0.8590820045889346 -1.0651243342618883e-10 254 0 0
-0.3642549514770508 -0.052790455520153046 0.03897467628121376 0 1.4039852658242897e-7 0.9999999999999902 0 254 0
0.42699044942855835 0.08390427380800247 0.17292030155658722 0 0 1 254 0 254
0.4328095018863678 -0.15710259974002838 0.019503870978951454 1 0 0 254 0 254
0.44506412744522095 0.1676899492740631 0.04867935925722122 1 0 0 254 0 254
0.23611173033714294 0.0601687915623188 0.06925913691520691 0.9992661376244668 0.03830386659955946 -7.769300431943008e-7 0 0 254
-0.4661647081375122 -0.23115181922912598 0.14441324770450592 0 0 1 254 0 0
-0.430129736661911 -0.053581222891807556 0.0330301970243454 0.9246852344695444 -0.380732474519844 -1.7261154184335404e-8 0 254 0
0.010700494050979614 0.19974146783351898 0.12295474112033844 0 0 1 0 0 254
-0.0005363802192732692 -0.13169193267822266 0.09376116096973419 0 0 1 0 0 254
0.438970685005188 0.1495068371295929 0.140258327126503 0 0 1 254 0 254
0.115550696849823 -0.005843025632202625 0.16316573321819305 0 2.8395797357915165e-7 0.9999999999999598 0 0 254
-0.2247156947851181 0.10143059492111206 0.16376879811286926 0 1.4039852658242897e-7 0.9999999999999902 0 254 0
0.33731338381767273 -0.2442760020494461 0.022006606683135033 0 -1 0 254 0 254
0.49222031235694885 0.183196559548378 0.07648425549268723 1 0 0 254 0 254
0.1378765106201172 -0.2849405109882355 0.03266242519021034 0 -1 0 0 0 254
-0.2066160887479782 0.053772762417793274 0.035759080201387405 0.9026324758072152 0.4304121439017918 1.9812876692560327e-8 0 254 0
0.3111858367919922 -0.26129043102264404 0.1490081399679184 0.9886368228185375 0.15032375915744123 2.0823797197085242e-7 254 0 0
0.012649429962038994 -0.13441306352615356 0.08466383069753647 1 0 0 0 0 254
0.03692908585071564 0.25336045026779175 0.13652656972408295 0 1 0 0 0 254
0.2821791172027588 0.08660610020160675 0.12108763307332993 0.9966548629499253 -0.08172566401238615 8.20457975072675e-10 0 0 254
0.3040309548377991 -0.30074992775917053 0.1455535888671875 -0.49755126816269857 0.8674345713364728 4.377036006787575e-10 254 0 0
0.2674085795879364 -0.21105684340000153 0.0018005650490522385 -1 0 0 254 0 254
0.45490026473999023 -0.3135994076728821 0.1562536507844925 0 0.0000027612256871984086 0.9999999999961879 254 0 0
0.046503908932209015 0.05622187629342079 0.16348089277744293 0 1 0 0 0 254
0.19484855234622955 -0.014967873692512512 0.1384977102279663 0 0 1 0 0 254
0.14367273449897766 -0.2684313654899597 0.11066019535064697 0 0 1 254 0 0
-0.22600600123405457 0.08767308294773102 0.06592260301113129 0.9026350462747368 0.4304067532423294 1.3280458633910133e-8 0 254 0
-0.4392021596431732 -0.27657362818717957 0.0432576946914196 0.9142715083520335 0.4051019736013356 2.3202132909859043e-8 254 0 0
-0.09503916651010513 -0.13475188612937927 0.04608245939016342 0 0 1 0 0 254
0.26811113953590393 0.20430301129817963 0.11695189028978348 0.778998499402701 0.627025787291352 2.450546726527038e-10 0 0 254
0.4953271448612213 -0.03787154331803322 0.05747845768928528 1 0 0 254 0 254
-0.14906451106071472 -0.25431007146835327 0.12246779352426529 0 0 1 254 0 0
0.4857565462589264 -0.21182537078857422 0.09773651510477066 1 0 0 254 0 0
0.391560435295105 -0.29807764291763306 0.10246461629867554 0.5554043730683503 0.8315804124533761 6.522499896501743e-7 254 0 0
0.09340270608663559 0.20105324685573578 0.03533104434609413 0.0959160427251884 0.9953894276854361 1.4575417639407913e-10 0 0 254
-0.33479732275009155 -0.23131513595581055 0.15901392698287964 1 0 0 254 0 0
-0.2775389552116394 0.2537664771080017 0.02028699405491352 0.9026319596086848 0.4304132264382506 2.773098971042956e-8 0 254 0
0.034407638013362885 -0.19469839334487915 0.0596887543797493 1 0 0 0 0 254
-0.0415637344121933 -0.25989267230033875 0.03580175340175629 1 0 0 0 0 254
-0.4098741114139557 -0.28185585141181946 0.14068523049354553 0 0 1 254 0 0
0.08731326460838318 0.21863742172718048 0.07526004314422607 0.03130385228637612 0.9995099143210189 -0.000002453970597367743 0 0 254
0.15979944169521332 -0.19387535750865936 0.0037580053322017193 -0.8134746540702471 -0.581600367249963 -1.4136627849523032e-8 0 0 254
-0.23778128623962402 0.07601606845855713 0.024126997217535973 0.9026247642117446 0.43042831578753243 2.2773675730912057e-8 0 254 0
0.0007856497541069984 -0.0752943605184555 0.1419096738100052 0 0 1 0 0 254
-0.44147127866744995 -0.08151858299970627 0.036718886345624924 0.9246766054417795 -0.380753431171233 -2.4233744118619478e-8 0 254 0
0.23799344897270203 0.1090787723660469 0.17299295961856842 0 0 1 0 0 254
-0.17676134407520294 -0.23052047193050385 0.12938646972179413 0 1 0 254 0 0
0.23079057037830353 0.19466064870357513 0.013685167767107487 0.68189953976241 0.7314458405595134 6.352036185301243e-11 0 0 254
0.42719846963882446 -0.0054222773760557175 0.14005117118358612 0 0 1 254 0 254
-0.1346663534641266 -0.20035256445407867 0.052286770194768906 0 -1 0 0 254 0
0.23362798988819122 -0.30118492245674133 0.12395241111516953 0 0 1 254 0 0
0.478377103805542 0.2651701867580414 0.12625522911548615 0 1 0 254 0 254
-0.3281063437461853 -0.22512495517730713 0.042185597121715546 0 1 0 254 0 0
-0.3249465823173523 0.12448330968618393 0.0991944819688797 0 1.4039852658242897e-7 0.9999999999999902 0 254 0
0.1344098299741745 0.22062525153160095 0.0457303412258625 0.17303773728676528 0.9849151950674111 -1.0408420772598625e-8 0 0 254
0.04471537470817566 -0.22094912827014923 0.05398781970143318 0 1 0 254 0 0
0.21022652089595795 0.24049027264118195 0.16912493109703064 0 0 1 0 0 254
-0.33203643560409546 -0.1901240199804306 0.16892243921756744 0 1 0 254 0 0
-0.20464086532592773 0.0411669984459877 0.005870422348380089 0.9026470257487322 0.4303816293790516 1.899950079343268e-8 0 254 0
-0.11966957896947861 -0.12430308759212494 0.17020145058631897 0 0 1 0 254 0
0.23865331709384918 0.08942349255084991 0.1362798511981964 0 3.6852469520451675e-7 0.999999999999932 0 0 254
-0.23479758203029633 -0.2893373370170593 0.07397375255823135 -1 0 0 254 0 0
0.4156332314014435 -0.08327075839042664 0.02114451862871647 1 0 0 254 0 254
0.06502609699964523 -0.2457844763994217 0.05748005583882332 0.8343864493874896 0.5511798736130126 0.0000015752823051128738 254 0 0
-0.32930538058280945 -0.27159547805786133 0.17289377748966217 0 0 1 254 0 0
-0.4170871078968048 -0.055877141654491425 0.09345881640911102 0 -1.8259608935977664e-8 0.9999999999999998 0 254 0
-0.22230762243270874 0.14566846191883087 0.1281263679265976 0.9026610006487905 0.4303523183482627 -3.935382577942565e-9 0 254 0
0.2744505703449249 0.05662902817130089 0.060486406087875366 0.9604661884600332 -0.2783966609445167 -2.6204589232860055e-12 0 0 254
0.23593129217624664 0.010837308131158352 0.15348070859909058 0 -0.0000019781025457593794 0.9999999999980436 0 0 254
0.23520368337631226 0.19258852303028107 0.0288402009755373 0.7040594823286264 0.7101410038458184 8.023810790531706e-11 0 0 254
0.00937966164201498 0.01385392528027296 0.024950100108981133 0 1 0 0 0 254
-0.2818860113620758 -0.2959994673728943 0.059082064777612686 -1 0 0 254 0 0
-0.2539658844470978 0.15299010276794434 0.11363568902015686 0.9026679995875707 0.4303376378154407 -7.228774026377851e-9 0 254 0
-0.11307408660650253 -0.11588824540376663 0.0036790126468986273 0 0 1 0 0 254
0.11660405248403549 -0.20936518907546997 0.09979492425918579 0 1 0 254 0 0
0.1312066912651062 0.03295901417732239 0.16508106887340546 0 0 1 0 0 254
-0.4035375714302063 -0.06117924675345421 0.1504647433757782 0 0 1 0 254 0
-0.32894980907440186 -0.25901854038238525 0.0901699960231781 0 1 0 254 0 0
-0.49249938130378723 -0.20604093372821808 0.11128535866737366 0 -1 0 0 254 0
-0.3507651686668396 -0.26056841015815735 0.08013450354337692 0 1 0 254 0 0
0.02941361628472805 -0.26789191365242004 0.17190460860729218 0 0 1 254 0 0
0.03523929417133331 -0.22144614160060883 0.03098338469862938 0 0 1 0 0 254
0.13958211243152618 0.017506089061498642 0.1308886557817459 0 0 1 0 0 254
-0.36584606766700745 0.025130335241556168 0.15220613777637482 0 0 1 0 254 0
0.08883820474147797 -0.2031632959842682 0.03352600336074829 0 0 1 0 0 254
-0.32754772901535034 -0.2652228772640228 0.04699709638953209 0 1 0 254 0 0
0.4684414267539978 0.20996035635471344 0.10867568105459213 1 0 0 254 0 254
-0.038701195269823074 -0.26913636922836304 0.06202611327171326 0 0 1 0 0 254
0.28059205412864685 0.17339621484279633 0.14074750244617462 0.907996466954514 0.41897782279987117 4.589363220232153e-11 0 0 254
0.47273099422454834 0.023968113586306572 0.12035302817821503 1 0 0 254 0 254
-0.3155338168144226 0.12430175393819809 0.04673638567328453 0.9026646151096904 0.4303447369596544 -2.7739766448691212e-9 0 254 0
0.1467743068933487 0.054655127227306366 0.03793017938733101 0 1 0 0 0 254
0.4759598970413208 0.23979336023330688 0.05858413875102997 1 0 0 254 0 254
0.13504238426685333 -0.20225019752979279 0.14660580456256866 0 1 0 254 0 0
-0.40743017196655273 -0.1564641147851944 0.14089056849479675 0.9099720822156577 -0.4146695185181812 2.6210296460076846e-9 0 254 0
0.21255163848400116 0.18455009162425995 0.009384970180690289 0.6532136263642735 0.7571736645790249 -7.290515282711022e-8 0 0 254
0.2911193072795868 -0.19700337946414948 0.01713494211435318 -1 0 0 254 0 254
0.22159315645694733 -0.30195701122283936 0.062250103801488876 0 1 0 254 0 0
0.13641175627708435 -0.20148925483226776 0.1486978381872177 0 1 0 254 0 0
0.16926421225070953 -0.2343403697013855 0.12108514457941055 -1 0 0 254 0 0
-0.1332191824913025 -0.23787696659564972 0.12008628249168396 0 1 0 254 0 0
0.04633326828479767 -0.06235218793153763 0.04584819823503494 -0.1312254948598716 0.9913525455148544 -5.3302025308811686e-11 0 0 254
-0.394883394241333 0.005280935671180487 0.09298142790794373 0 -1.8259608935977664e-8 0.9999999999999998 0 254 0
0.42915788292884827 0.017530016601085663 0.12346099317073822 0 0 1 254 0 254
0.153288334608078 0.2681272327899933 0.08153513818979263 0.07202838176588612 0.9974025828220663 -2.432336367684102e-7 0 0 254
0.18054445087909698 -0.3068912923336029 0.08462652564048767 0 0 1 254 0 0
-0.3768500089645386 0.04777325317263603 0.02507503144443035 0.9026836138777113 0.43030488404929174 -1.841121917901202e-8 0 254 0
-0.32144132256507874 0.10811737179756165 0.0825318992137909 0.9026844398007915 0.4303031514427132 -1.878239764391141e-8 0 254 0
0.21597149968147278 0.07067184895277023 0.03661806508898735 0.979085923528707 0.20344717827370484 -6.374285143662106e-7 0 0 254
0.4061983525753021 -0.309213250875473 0.15223155915737152 0.12401249193872392 0.9922806567917909 2.363290661721009e-9 254 0 0
-0.2495381385087967 0.06815005838871002 0.0719708651304245 0.9026488041659406 0.43037789945325655 2.787516876553998e-9 0 254 0
0.48950353264808655 -0.06548535078763962 0.016197120770812035 1 0 0 254 0 254
-0.47020843625068665 -0.12980759143829346 0.047116443514823914 0 -1.8259608935977664e-8 0.9999999999999998 0 254 0
0.49048805236816406 -0.30376601219177246 0.056709107011556625 1 0 0 254 0 0
0.33164000511169434 -0.2763778865337372 0.011511415243148804 0 -1 0 254 0 254
0.19482047855854034 -0.06859631091356277 0.05305980145931244 0.8179739035607346 0.5752553286094296 -2.6707880083961227e-7 0 0 254
0.2880444824695587 0.19415557384490967 0.08766520023345947 0.8738802184210429 0.48614130029487346 -2.8290120598707435e-11 0 0 254
-0.21579229831695557 -0.020274395123124123 0.05647527799010277 0.9026290102296471 0.43041941161133473 1.1443113915558459e-8 0 254 0
0.08171200752258301 -0.1938408762216568 0.0575663261115551 0 0 1 0 0 254
0.05385809764266014 0.2026219218969345 0.11842695623636246 0 -3.6344155773801834e-7 0.999999999999934 0 0 254
0.19952966272830963 -0.20070350170135498 0.12013204395771027 0 -1 0 0 0 254
0.22337092459201813 -0.1180129125714302 0.12705540657043457 0.817961746109058 0.5752726152895123 -4.307455265906859e-7 0 0 254
0.4514044225215912 0.17428547143936157 0.13163308799266815 0 0 1 254 0 254
-0.45317885279655457 -0.26015082001686096 0.04416950047016144 0.9141362132603003 0.4054071824796878 8.947150486148665e-11 254 0 0
-0.10123076289892197 -0.23961830139160156 0.016488445922732353 0 0 1 0 0 254
0.4582023620605469 0.22424982488155365 0.06886240839958191 1 0 0 254 0 254
0.488604336977005 -0.11707155406475067 0.02128535695374012 1 0 0 254 0 254
0.20338207483291626 0.21110005676746368 0.12548696994781494 0.4949697371072335 0.8689102136285405 -1.8311608655125748e-8 0 0 254
-0.4536046087741852 -0.24365659058094025 0.1406184732913971 0.9141284894896184 0.4054245980492901 2.687617371909153e-10 254 0 0
0.32550564408302307 -0.20488494634628296 0.013006528839468956 -1 0 0 254 0 254
0.4483744502067566 0.06994888186454773 0.0724698007106781 1 0 0 254 0 254
0.2783142328262329 0.03512599691748619 0.07798892259597778 0.7858710533432038 -0.6183904005700953 4.823104218920977e-11 0 0 254
0.06298828125 -0.06661878526210785 0.10152806341648102 0 2.8395797357915165e-7 0.9999999999999598 0 0 254
-0.45833322405815125 -0.20977051556110382 0.09298425912857056 0.9099720822156577 -0.4146695185181812 1.5591583760850845e-9 0 254 0
0.43427419662475586 -0.11952310055494308 0.05096473917365074 1 0 0 254 0 254
0.4710223078727722 -0.04353348910808563 0.006103462539613247 1 0 0 254 0 254
-0.1540067195892334 -0.059534769505262375 0.04139470309019089 0.9026500432600154 0.430375300642 1.0617572422351693e-8 0 254 0
0.18234877288341522 -0.2900768518447876 0.12389356642961502 0.9463772635275605 0.3230635774550981 -7.452705010661165e-11 254 0 0
0.23355291783809662 0.08489903807640076 0.0002639495942275971 0.9833124475047946 0.18192479375303758 -2.1267098726535874e-7 0 0 254
0.2737935483455658 0.0708574652671814 0.051923323422670364 0.9894848029783789 -0.14463687176801998 -3.436438255508173e-12 0 0 254
-0.4121062159538269 0.0053122155368328094 0.02569628320634365 0 1.4039852658242897e-7 0.9999999999999902 0 254 0
-0.4184732735157013 -0.006534557323902845 0.018973633646965027 0 1.4039852658242897e-7 0.9999999999999902 0 254 0
-0.20961083471775055 -0.2017795890569687 0.0499131977558136 -0.9099722254181939 -0.4146692042670398 -1.4567358029730505e-9 0 254 0
-0.19147555530071259 -0.037313032895326614 0.1620035171508789 0 0 1 0 254 0
0.04693462699651718 0.04177628830075264 0.024165386334061623 0 1 0 0 0 254
0.46272286772727966 0.04495285451412201 0.1118096336722374 1 0 0 254 0 254
-0.40906012058258057 -0.14609791338443756 0.1757572442293167 0 2.722810279465092e-7 0.9999999999999629 0 254 0
0.01970038190484047 -0.19824878871440887 0.1112411767244339 1 0 0 0 0 254
-0.057110171765089035 -0.24311257898807526 0.06538278609514236 0 0 1 0 0 254
0.2485937774181366 -0.12934961915016174 0.042169611901044846 0.8179881054899113 0.5752351339035408 3.30304888823724e-8 0 0 254
-0.1810038983821869 -0.25363847613334656 0.042667169123888016 0 -1 0 0 254 0
0.1903678923845291 0.03415714204311371 0.14964674413204193 0 0 1 0 0 254
-0.03911608085036278 -0.2537302076816559 0.10503870248794556 0 1 0 254 0 0
0.10255392640829086 -0.31513047218322754 0.014909883961081505 0 -1 0 0 0 254
0.11614719778299332 0.23012372851371765 0.05789683759212494 0.07489690721362802 0.9971912821969832 -4.1218096943935996e-7 0 0 254
0.1851738691329956 -0.20590326189994812 0.04071984812617302 -0.8134915750710154 -0.5815766994029923 -1.4699417098039716e-9 0 0 254
0.15336214005947113 -0.20198127627372742 0.14162462949752808 0 1 0 254 0 0
-0.2843552529811859 0.2602125406265259 0.020962746813893318 0.9026351152075293 0.4304066086786886 2.6007729813604603e-8 0 254 0
0.039394959807395935 0.23509100079536438 0.05994962528347969 0 1 0 0 0 254
0.02893623150885105 -0.30008184909820557 0.1175694689154625 0.2670402758391782 0.9636853693398773 -2.748847747596448e-10 254 0 0
0.29087579250335693 0.13971039652824402 0.08968187123537064 0.9861714232544992 0.16572846453199705 -2.49063873238805e-7 0 0 254
-0.3708772659301758 -0.0026545163709670305 0.10770121216773987 0.92468417661996 -0.3807350437097508 -2.075709581590674e-8 0 254 0
0.21503537893295288 -0.25364983081817627 0.04923063889145851 0 -1 0 0 0 254
-0.2648162543773651 0.1450764387845993 0.06169477477669716 0.9026486663092499 0.4303781885854956 7.996042752384698e-9 0 254 0
-0.200547993183136 0.0981031134724617 0.12221672385931015 0.9026498943639732 0.43037561292980814 8.766957305030755e-10 0 254 0
0.1484132558107376 -0.23272481560707092 0.07131781429052353 0 0 1 0 0 254
-0.3752148151397705 -0.30228501558303833 0.07867167145013809 0 1 0 254 0 0
0.3742629289627075 -0.3128374516963959 0.10872618108987808 0.5926079715097917 0.8054910254639223 3.589728102464059e-7 254 0 0
-0.3278696537017822 -0.19310863316059113 0.17280614376068115 0 0 1 254 0 0
0.45221972465515137 -0.2531073987483978 0.012442010454833508 0.9978359904301556 0.0657520813531434 -3.844796967933284e-10 254 0 0
0.044429391622543335 -0.20467564463615417 0.1319795548915863 0 1 0 254 0 0
-0.19485966861248016 -0.060168392956256866 0.14089754223823547 0 1.4039852658242897e-7 0.9999999999999902 0 254 0
0.09182064235210419 0.21079817414283752 0.12408819049596786 0 0 1 0 0 254
0.06939677894115448 -0.26692065596580505 0.06150815635919571 0.29126111050007014 0.9566435937747484 4.1421810962333075e-10 254 0 0
0.0725109875202179 0.23423238098621368 0.08033567667007446 0 1 0 0 0 254
0.13119687139987946 -0.19175833463668823 0.05610683932900429 0 0 1 0 0 254
-0.20069946348667145 -0.03915650025010109 0.17470620572566986 0 0 1 0 254 0
-0.45481619238853455 -0.1390780359506607 0.17250807583332062 0 2.722810279465092e-7 0.9999999999999629 0 254 0
-0.36308223009109497 -0.2125847041606903 0.17237043380737305 0 0 1 254 0 0
-0.3768581748008728 -0.27450114488601685 0.14694438874721527 0 0 1 254 0 0
-0.4354694187641144 -0.23405231535434723 0.17583028972148895 0 -5.236150286690836e-7 0.999999999999863 254 0 0
0.4397929906845093 -0.07843036204576492 0.17378512024879456 0 0 1 254 0 254
-0.21094222366809845 -0.20898917317390442 0.047673385590314865 -0.9099722254181939 -0.4146692042670398 -1.5057955856359132e-10 0 254 0
0.47115811705589294 -0.09453438967466354 0.16230620443820953 0 0 1 254 0 254
-0.4240594506263733 -0.09311528503894806 0.054544005542993546 0.9246508253915102 -0.380816033148287 -3.642820711841865e-8 0 254 0
0.28992873430252075 0.11272099614143372 0.06315204501152039 0.9994440237964294 0.033341315174807006 -1.2945865741380317e-7 0 0 254
0.26993927359580994 0.03784674406051636 0.11880914866924286 0.9036310388380279 -0.42831173886350254 4.789528741355059e-7 0 0 254
-0.3625115156173706 -0.043671004474163055 0.13108786940574646 0.9246463886832299 -0.38082680564143523 -4.140028103499611e-8 0 254 0
-0.3600247800350189 0.010270477272570133 0.11613944172859192 0.9246850215425721 -0.380732991655323 -1.9886484004750643e-8 0 254 0
-0.42200008034706116 -0.22286389768123627 0.061863113194704056 0 1 0 254 0 0
0.1493796557188034 -0.30884435772895813 0.040446486324071884 1 0 0 254 0 0
0.4581703245639801 0.1706424206495285 0.14683400094509125 0 0 1 254 0 254
0.04083660617470741 -0.06290661543607712 0.12181074172258377 0 -1 0 0 0 254
0.0282234288752079 0.05917325243353844 0.16425225138664246 0 1 0 0 0 254
-0.1768627017736435 -0.037404123693704605 0.1457822024822235 0 1.4039852658242897e-7 0.9999999999999902 0 254 0
0.47179335355758667 0.12156274169683456 0.04884245991706848 1 0 0 254 0 254
0.2636178135871887 -0.22620098292827606 0.1616421341896057 0 0 1 254 0 0
0.45638927817344666 0.06427592784166336 0.11902057379484177 1 0 0 254 0 254
-0.44519418478012085 -0.155756875872612 0.06113641709089279 0.9099720822156577 -0.4146695185181812 -8.876085747343395e-9 0 254 0
-0.32276642322540283 -0.23026011884212494 0.04156903177499771 0 1 0 254 0 0
0.18184812366962433 0.2599244713783264 0.01730150543153286 0.20202060227464064 0.9793812721594021 -1.4977274667857226e-7 0 0 254
0.20693035423755646 -0.10277716815471649 0.06641075760126114 0.817978802375039 0.5752483627660724 -2.248581418292824e-7 0 0 254
-0.427137166261673 -0.08402219414710999 0.14751838147640228 0 0 1 0 254 0
-0.4011329412460327 -0.033852092921733856 0.053904786705970764 0.924673573041297 -0.3807607954070912 -2.115920452719521e-8 0 254 0
0.49467670917510986 -0.2103356570005417 0.12862257659435272 1 0 0 254 0 0
0.02685188129544258 -0.2719061076641083 0.07099301367998123 0.9976332817246795 0.06875925534243663 -1.3704704084360677e-9 254 0 0
0.08740348368883133 0.24117594957351685 0.07728908210992813 0 1 0 0 0 254
-0.25248971581459045 0.1288592368364334 0.08486079424619675 0.9026545181518951 0.4303659150768911 1.8612146052835945e-9 0 254 0
0.49928945302963257 0.16014954447746277 0.08118187636137009 1 0 0 254 0 254
0.005932672880589962 0.2528679370880127 0.015865476801991463 0 1 0 0 0 254
-0.27847805619239807 0.180337592959404 0.0035364062059670687 0.902626497043635 0.4304246819534586 2.7972736476643204e-8 0 254 0
-0.24003955721855164 -0.2241026908159256 0.05762755870819092 0 0 1 0 254 0
0.09818229079246521 -0.21112366020679474 0.15632355213165283 0 0 1 254 0 0
0.0596175380051136 -0.29834720492362976 0.04252598062157631 -0.37241835143165863 -0.9280649608276444 9.531513190762294e-7 254 0 0
-0.2229442447423935 0.030740467831492424 0.14116889238357544 0 1.4039852658242897e-7 0.9999999999999902 0 254 0
0.10628310590982437 -0.016421983018517494 0.0772678479552269 -0.36404585086699537 0.9313810275424733 -6.724232978153442e-7 0 0 254
0.053860750049352646 -0.058984242379665375 0.0013646406587213278 -0.19211900146499014 0.9813716366780196 -3.0711383296123674e-10 0 0 254
0.47156405448913574 0.11490966379642487 0.13789206743240356 1 0 0 254 0 254
-0.482661634683609 -0.2527692914009094 0.07632503658533096 0 1 0 254 0 0
-0.19057224690914154 0.0736895501613617 0.08064133673906326 0.9026266580719109 0.43042434426729775 1.7072596243578158e-8 0 254 0
-0.3746300935745239 -0.2437310367822647 0.06173117458820343 0 1 0 254 0 0
-0.24018099904060364 0.13563977181911469 0.11492519080638885 0.9026629857158799 0.4303481546591008 -5.042546342679564e-9 0 254 0
-0.33989524841308594 0.07325084507465363 0.041210003197193146 0.9246839723317821 -0.38073553986030273 -1.897783675609933e-9 0 254 0
0.46781763434410095 0.1505349725484848 0.028121888637542725 1 0 0 254 0 254
0.26000839471817017 -0.1067754328250885 0.10656213760375977 0.8179915969526361 0.5752301689887859 -9.45118594389942e-8 0 0 254
0.44017335772514343 0.26949891448020935 0.1365296095609665 0 1 0 254 0 254
-0.25276345014572144 0.09864600747823715 0.17044134438037872 0 1.4039852658242897e-7 0.9999999999999902 0 254 0
0.25975334644317627 0.045277662575244904 0.16980160772800446 0 0 1 0 0 254
-0.14177832007408142 -0.2603987157344818 0.12839816510677338 0 -0.0000034701618005574592 0.999999999993979 254 0 0
0.42010173201560974 0.05742272362112999 0.127312570810318 0 0 1 254 0 254
0.17883673310279846 0.26083114743232727 0.15609997510910034 0.18843091075452117 0.9820864482682886 -1.0509940997396986e-9 0 0 254
0.16910527646541595 0.2724834680557251 0.133761927485466 0.11007898445331925 0.9939228426702578 1.8112700466231442e-10 0 0 254
0.4899458587169647 -0.10274196416139603 0.10784350335597992 1 0 0 254 0 254
0.46710339188575745 0.1313178688287735 0.0407482273876667 1 0 0 254 0 254
-0.3379194736480713 0.011435718275606632 0.03034697100520134 0.9246710485680788 -0.38076692600593565 2.417438457720547e-9 0 254 0
0.033055905252695084 -0.040949299931526184 0.10826268047094345 0 2.8395797357915165e-7 0.9999999999999598 0 0 254
0.01940961927175522 0.23594515025615692 0.09685178846120834 0 1 0 0 0 254
0.27739474177360535 0.08026304841041565 0.05472355708479881 0.9954718759067379 -0.09505653201500769 3.466077359495719e-10 0 0 254
0.47977113723754883 0.1496584713459015 0.07840481400489807 1 0 0 254 0 254
0.10472787916660309 -0.20435446500778198 0.005770629737526178 -0.8134769631731786 -0.5815971375329682 -2.9207110801543066e-8 0 0 254
-0.29290688037872314 0.1567944884300232 0.1090756505727768 0.9026829599746105 0.43030625578938053 -1.6518912459052234e-8 0 254 0
0.38351479172706604 -0.2981615364551544 0.12231837958097458 0.666726565888827 0.7453024126742727 1.0694081530788538e-11 254 0 0
0.46767181158065796 0.26477301120758057 0.10837890952825546 0 1 0 254 0 254
0.43853622674942017 0.09365233033895493 0.16854478418827057 0 0 1 254 0 254
-0.3299058973789215 0.10984748601913452 0.17288896441459656 0 0 1 0 254 0
0.3991714119911194 -0.26252809166908264 0.10574931651353836 0.3418490945295364 0.9397548598231541 0.000002846044529768274 254 0 0
-0.46210211515426636 -0.09716638922691345 0.14601534605026245 0 0 1 0 254 0
0.2146637737751007 -0.3053828179836273 0.15354497730731964 -0.04304532960664647 0.9990731202464888 -1.5938600000316112e-10 254 0 0
-0.06632082164287567 -0.30325573682785034 0.05362548679113388 0.8135419874262438 0.5815061776925105 6.217268672811652e-8 254 0 0
-0.1861981302499771 -0.060457538813352585 0.0547325499355793 0.9026295495925423 0.4304182805160165 1.2357498071824039e-8 0 254 0
0.22061246633529663 -0.06015922129154205 0.07579495012760162 0.817977375422462 0.5752503918268347 -2.3217646303866468e-7 0 0 254
-0.1686149537563324 -0.07877806574106216 0.09639684110879898 0.9026284366658776 0.4304206144251388 6.029187470989727e-9 0 254 0
0.05027389153838158 0.25819694995880127 0.1595478504896164 0 0 1 0 0 254
-0.08428606390953064 -0.13067632913589478 0.11663882434368134 0.9026436751210509 0.43038865663951054 2.819471750140105e-9 0 254 0
0.18360620737075806 0.0582621693611145 0.07907582819461823 -0.4339412844114974 0.9009411532854407 0 0 0 254
0.24578386545181274 -0.07455267757177353 0.006456797011196613 -1 0 0 254 0 254
-0.1818321943283081 0.021320868283510208 0.00013287243200466037 0.902659257068927 0.4303559754758527 1.6632388274085655e-8 0 254 0
-0.1852044314146042 -0.0179118774831295 0.12689855694770813 0.9026484369061103 0.43037866972116057 -5.2528602988447125e-9 0 254 0
0.44346609711647034 -0.26764529943466187 0.11826834082603455 0.9947766634498398 -0.10207541259090884 4.103594397524052e-10 254 0 0
0.44964921474456787 0.20212605595588684 0.09214228391647339 1 0 0 254 0 254
0.03131980448961258 -0.01670929789543152 0.11626199632883072 0 0 1 0 0 254
0.04192930832505226 0.0025162536185234785 0.081454336643219 0 1 0 0 0 254
-0.2865428626537323 -0.1936601847410202 0.06426952034235 0 0 1 0 254 0
0.47372639179229736 -0.2640916109085083 0.1703876256942749 0 0 1 254 0 0
0.11000137776136398 0.255774587392807 0.02405228465795517 0 1 0 0 0 254
0.2080649584531784 -0.013828757219016552 0.08071260899305344 0.26605493441448796 -0.9639578683084143 -4.95617502876785e-10 0 0 254
-0.2450486719608307 -0.2809221148490906 0.13688042759895325 -1 0 0 254 0 0
0.13023343682289124 -0.28662392497062683 0.13958640396595 0 0 1 254 0 0
0.18257541954517365 0.054360281676054 0.1340315043926239 -0.5196245973911506 0.85439468501746 0 0 0 254
0.43094825744628906 -0.15134267508983612 0.11692308634519577 0 0 1 254 0 254
-0.38537877798080444 -0.033497732132673264 0.06791211664676666 0.9246590700362642 -0.3807960138967719 -2.7633417233025187e-8 0 254 0
0.30366986989974976 -0.3021121919155121 0.09973739832639694 -0.5692661300839511 0.8221533148624058 7.645252069724034e-10 254 0 0
0.003861452918499708 -0.2264704406261444 0.004487798549234867 0 0 1 0 0 254
0.17422594130039215 -0.2783592641353607 0.0772709995508194 0 1 0 254 0 0
0.22212524712085724 -0.08866390585899353 0.00763779878616333 0.8179922429134681 0.5752292504153373 5.3381685196474874e-8 0 0 254
-0.38718900084495544 -0.24244283139705658 0.11562572419643402 0 1 0 254 0 0
-0.48392513394355774 -0.2979929745197296 0.16356827318668365 0 0 1 254 0 0
0.054575443267822266 0.2767679691314697 0.11099137365818024 0 1 0 0 0 254
-0.3418441414833069 0.1489870250225067 0.1642778068780899 0 0 1 0 254 0
-0.24816888570785522 0.1303108185529709 0.11258126050233841 0.9026655558014715 0.43034276381696107 -6.9001036020844626e-9 0 254 0
-0.1443946659564972 -0.14397045969963074 0.10205414146184921 0.9026235939012347 0.43043076996518137 5.420126570352951e-9 0 254 0
0.1345551609992981 0.2652251422405243 0.10761479288339615 0.03216741549649935 0.9994824947810849 -0.0000025405401634558775 0 0 254
-0.2610790431499481 -0.29442211985588074 0.14209023118019104 0.7140907798968694 0.7000531108896529 -1.4783049769516963e-8 254 0 0
-0.3077658414840698 -0.21015866100788116 0.04468873143196106 0 0 1 0 254 0
-0.19280298054218292 0.09709132462739944 0.10683930665254593 0.90263929208023 0.43039784896407335 8.649827734143798e-9 0 254 0
-0.2864430248737335 0.2583422064781189 0.1032664030790329 0.902674653688726 0.4303236800223043 -4.784140970407379e-9 0 254 0
0.05687929317355156 -0.0809059739112854 0.16938216984272003 0 0 1 0 0 254
0.13107939064502716 0.2081383913755417 0.043345771729946136 0.20555029331002628 0.9786465536240015 -1.6300777947706163e-7 0 0 254
-0.37628409266471863 -0.2690354585647583 0.010510367341339588 0 -1 0 254 0 0
0.07994921505451202 -0.31338638067245483 0.08975255489349365 -0.977939470547288 0.20888846771827818 3.3052285368929775e-10 254 0 0
0.4982939660549164 0.02297893725335598 0.16819557547569275 1 0 0 254 0 254
-0.291347473859787 -0.21463847160339355 0.12568524479866028 0 1 0 254 0 0
-0.20494960248470306 0.038507163524627686 0.10016587376594543 0.9026431015986288 0.4303898594720928 3.1088767704228427e-9 0 254 0
0.24538448452949524 -0.2940501272678375 0.06692353636026382 0.4857987193231875 0.8740707089817568 -0.0000020198583685670836 254 0 0
-0.07848525792360306 -0.2665208876132965 0.1643608808517456 0 1 0 254 0 0
0.47851064801216125 -0.11217807233333588 0.10610660910606384 1 0 0 254 0 254
0.08436587452888489 0.20173321664333344 0.024713091552257538 0.06361512043442431 0.9979745069144492 -9.8784504756828e-7 0 0 254
0.08015444129705429 0.276461124420166 0.12400821596384048 0 1 0 0 0 254
0.45815762877464294 -0.3130093216896057 0.09304104745388031 1 0 0 254 0 0
0.43143486976623535 0.18967124819755554 0.13984815776348114 0 0 1 254 0 254
0.36877191066741943 -0.20660516619682312 0.13267306983470917 0 1 0 254 0 0
0.034999262541532516 -0.08416543900966644 0.14508795738220215 0 0 1 0 0 254
0.07955368608236313 -0.14903493225574493 0.05051793158054352 0 0 1 0 0 254
-0.2551008462905884 0.1256648302078247 0.07001436501741409 0.9026487925883314 0.4303779237354392 6.283408362864792e-9 0 254 0
0.048175908625125885 -0.21343882381916046 0.008634522557258606 0 0 1 0 0 254
-0.4731602966785431 -0.25746411085128784 0.10527340322732925 0.9141313233704057 0.40541820831466185 3.070626463658945e-10 254 0 0
0.30360808968544006 0.16654731333255768 0.1417635977268219 0.9681258012521607 0.25046443450045364 -4.791731859862505e-7 0 0 254
0.2605924904346466 -0.13451646268367767 0.07958566397428513 0.817997998251343 0.5752210660752918 2.7838160432877626e-8 0 0 254
0.23524467647075653 0.05605294555425644 0.1284121572971344 0 0 1 0 0 254
-0.09204289317131042 -0.30680182576179504 0.1415899395942688 0.8135483253015678 0.5814973107409994 -8.053322441562502e-9 254 0 0
0.20612265169620514 -0.08829975873231888 0.0035796973388642073 0.8179997678273814 0.5752185496264414 5.834744155219247e-8 0 0 254
0.07798810303211212 -0.02720441296696663 0.14409343898296356 0 2.8395797357915165e-7 0.9999999999999598 0 0 254
0.03993578255176544 0.2661769986152649 0.14490941166877747 0 1 0 0 0 254
-0.024400390684604645 -0.2994326651096344 0.08345413953065872 0 1 0 254 0 0
0.2847420871257782 -0.2645198404788971 0.13015887141227722 0.7170253044450265 0.6970471381373654 1.6007020610732832e-7 254 0 0
0.4614923298358917 0.1842329353094101 0.12906737625598907 1 0 0 254 0 254
-0.40275540947914124 -0.05523204803466797 0.11289271712303162 0 -1.8259608935977664e-8 0.9999999999999998 0 254 0
0.22868478298187256 0.0767652690410614 0.15322645008563995 0 0 1 0 0 254
0.45532482862472534 -0.14652249217033386 0.061252497136592865 1 0 0 254 0 254
0.2634156346321106 0.040637269616127014 0.12864503264427185 0.9451862490478276 -0.3265317053681013 5.456327537309227e-7 0 0 254
0.26563000679016113 -0.19762705266475677 0.1705254465341568 0 0 1 254 0 0
0.44899508357048035 -0.04829327389597893 0.07070046663284302 1 0 0 254 0 254
0.4293767809867859 0.12669003009796143 0.09703786671161652 1 0 0 254 0 254
-0.3520846664905548 -0.3111608326435089 0.1712181717157364 0 8.382447731489049e-7 0.9999999999996487 254 0 0
0.42582669854164124 0.08404380083084106 0.17297376692295074 0 0 1 254 0 254
0.3916650712490082 -0.1957540214061737 0.1728481501340866 0 -3.849740153327445e-7 0.9999999999999261 254 0 0
0.42166149616241455 0.08686250448226929 0.0265538040548563 1 0 0 254 0 254
-0.2680722773075104 -0.2233935296535492 0.0044133602641522884 -0.9099722254181939 -0.4146692042670398 -9.880411772163952e-9 0 254 0
-0.40370628237724304 -0.03158044070005417 0.11359404027462006 0 -1.8259608935977664e-8 0.9999999999999998 0 254 0
0.4767371714115143 -0.22350746393203735 0.07034894078969955 1 0 0 254 0 0
-0.30733293294906616 0.1936441957950592 0.03555784001946449 0.9026538873107773 0.4303672382079548 8.965498708241792e-9 0 254 0
-0.2994057536125183 0.10174065828323364 0.05014289915561676 0.9246601490427055 -0.38079339381391786 -6.950466445720943e-9 0 254 0
0.2644924819469452 0.20516309142112732 0.11231299489736557 0.7637724991449029 0.6454855300856477 2.367946152633474e-10 0 0 254
-0.3841519057750702 -0.2601485252380371 0.04967362433671951 0 -1 0 254 0 0
-0.479461133480072 -0.22507305443286896 0.11663544178009033 0 1 0 254 0 0
0.32300782203674316 -0.20084527134895325 0.013287659734487534 -1 0 0 254 0 254
0.4528685212135315 -0.24984532594680786 0.09275641292333603 0.9898978420689227 0.1417824469643062 3.220937384622048e-7 254 0 0
-0.42095306515693665 -0.21421320736408234 0.034554820507764816 0 1 0 254 0 0
0.18585392832756042 -0.26124662160873413 0.11370206624269485 0 0 1 254 0 0
0.21636945009231567 -0.001970543060451746 0.02047295682132244 0.9590834731891504 -0.2831234562084818 -1.2237293116350048e-12 0 0 254
0.14066825807094574 -0.20364044606685638 0.12246230244636536 0 1 0 254 0 0
0.2301386296749115 0.19345392286777496 0.09989966452121735 0.6838339471466307 0.7296376722249551 -8.990726615030495e-8 0 0 254
0.38460013270378113 -0.21076084673404694 0.10105115920305252 0 -1 0 254 0 254
0.28899872303009033 -0.315189927816391 0.04039638116955757 -0.4534877683057654 0.8912625000509427 1.4211081375580603e-10 254 0 0
-0.3044492304325104 -0.27670273184776306 0.09971687197685242 -1 0 0 254 0 0
0.18367187678813934 0.20552989840507507 0.04043774679303169 0.4312608554012132 0.9022272854433805 2.8743699069544965e-7 0 0 254
0.18060126900672913 -0.01000695675611496 0.015747355297207832 0.9978973766326027 -0.06481377716017767 1.7449977289563345e-8 0 0 254
-0.3494192957878113 0.07177304476499557 0.1554911732673645 0 0 1 0 254 0
0.16482123732566833 -0.30227208137512207 0.14232230186462402 0.9727559011355188 0.23183174244702773 2.8284188652217585e-10 254 0 0
-0.21764446794986725 -0.30904462933540344 0.06265634298324585 0 0 1 254 0 0
0.4269009828567505 -0.21970267593860626 0.07478606700897217 0 -1 0 254 0 254
-0.09367929399013519 -0.2104465365409851 0.06835759431123734 0 0 1 0 0 254
-0.36018842458724976 0.037129294127225876 0.04920313507318497 0 1.4039852658242897e-7 0.9999999999999902 0 254 0
0.02541467919945717 0.0444735623896122 0.10849685966968536 0 1 0 0 0 254
0.057120732963085175 0.23245103657245636 0.07808585464954376 0 1 0 0 0 254
0.47077903151512146 0.08570026606321335 0.019455300644040108 1 0 0 254 0 254
0.0644693374633789 0.04499231278896332 0.03810381144285202 0 1 0 0 0 254
-0.3838440179824829 -0.04544370621442795 0.016347970813512802 0 1.4039852658242897e-7 0.9999999999999902 0 254 0
0.08689901232719421 -0.20331208407878876 0.01855444349348545 -0.8134799734346273 -0.5815929270725331 -3.5582005487239224e-8 0 0 254
0.46256697177886963 -0.15258410573005676 0.07677150517702103 1 0 0 254 0 254
-0.12842682003974915 -0.15087725222110748 0.12426040321588516 0.902625682465373 0.43042639016900386 1.9616919254397498e-9 0 254 0
0.07666628062725067 -0.0444161519408226 0.11910407990217209 0 2.8395797357915165e-7 0.9999999999999598 0 0 254
-0.3414098918437958 0.03473377227783203 0.10599955916404724 0.9246783354823574 -0.38074922966379904 -1.7435471918389734e-8 0 254 0
-0.19127264618873596 -0.22829429805278778 0.028759369626641273 0 -1 0 0 254 0
0.46433842182159424 -0.22590988874435425 0.10208365321159363 1 0 0 254 0 0
0.027576861903071404 -0.025860967114567757 0.06375587731599808 0 1 0 0 0 254
0.10713322460651398 -0.005079089198261499 0.11526824533939362 0 -0.00000299420912595928 0.9999999999955174 0 0 254
0.006903325207531452 -0.06572049111127853 0.04989061877131462 0 1 0 0 0 254
0.03961564972996712 -0.024137845262885094 0.1719491183757782 0 0 1 0 0 254
0.26732805371284485 0.22592462599277496 0.1610650271177292 0.6999787046028272 0.7141637158961139 -5.373147225007838e-8 0 0 254
0.43966352939605713 -0.2059098780155182 0.060271698981523514 0 -1 0 254 0 254
0.4915808439254761 0.05587996169924736 0.1746661514043808 0 0 1 254 0 254
-0.4272597134113312 -0.18919146060943604 0.09373418241739273 0 1 0 254 0 0
0.4654947817325592 0.014609655365347862 0.019044194370508194 1 0 0 254 0 254
-0.3644327223300934 -0.0430900864303112 0.09124056249856949 0.9246598644767835 -0.38079408480933086 -2.3389157689005596e-8 0 254 0
0.20201930403709412 0.20912408828735352 0.005640137474983931 0.4980951879420934 0.867122358003077 -3.38174575082392e-7 0 0 254
0.20817390084266663 0.2016836553812027 0.06743447482585907 0.5624948371984372 0.8268007971240476 -3.783241464705054e-7 0 0 254
-0.41885408759117126 -0.09807772934436798 0.06201603263616562 0.9246499296646418 -0.38081820803524075 -3.6128812773818224e-8 0 254 0
-0.25171443819999695 -0.3027079403400421 0.11048905551433563 -1 0 0 254 0 0
0.06306465715169907 0.05960347130894661 0.09801369160413742 0 1 0 0 0 254
0.44786572456359863 -0.26180437207221985 0.03689250722527504 0.998170394190667 -0.06046374253425402 1.7288939695480548e-11 254 0 0
-0.3658173680305481 -0.18982459604740143 0.17102771997451782 0 1 0 254 0 0
-0.001251205219887197 0.25684988498687744 0.1213768944144249 0 1 0 0 0 254
-0.4908407926559448 -0.2121947556734085 0.08500606566667557 0 -1 0 0 254 0
-0.23599940538406372 0.14332151412963867 0.05138380080461502 0.9026311560943661 0.4304149115071964 1.9947870744833276e-8 0 254 0
-0.48515862226486206 -0.30055704712867737 0.16049888730049133 0 0 1 254 0 0
0.32892513275146484 -0.21218205988407135 0.012305897660553455 -1 0 0 254 0 254
0.005575297866016626 -0.13679605722427368 0.15384936332702637 0 0 1 0 0 254
-0.4637388288974762 -0.19633060693740845 0.03388238698244095 0.9099720822156577 -0.4146695185181812 7.91014640760211e-9 0 254 0
0.3131197690963745 -0.19708415865898132 0.07807903736829758 0 1 0 254 0 0
-0.3364211618900299 -0.18938905000686646 0.1127239540219307 0 1 0 254 0 0
0.4979420304298401 -0.20699305832386017 0.06737517565488815 1 0 0 254 0 0
-0.49287739396095276 -0.27313554286956787 0.08049985021352768 0.9141302094548011 0.4054207199467259 2.940647165639818e-10 254 0 0
0.056786224246025085 -0.2699470520019531 0.009169814176857471 0 0 1 0 0 254
0.05076106637716293 0.210150808095932 0.15244880318641663 0 -3.6344155773801834e-7 0.999999999999934 0 0 254
0.10416003316640854 0.004727048799395561 0.023438110947608948 -0.05352583986037446 0.998566464721924 -4.2342924291703064e-10 0 0 254
-0.14657436311244965 -0.10502880811691284 0.1046968325972557 0.9026232955331953 0.4304313956495204 7.361107721323943e-9 0 254 0
-0.08416634052991867 -0.2323080599308014 0.010282322764396667 0 0 1 0 0 254
-0.12717677652835846 -0.10282579064369202 0.11792434006929398 0.9026248678838421 0.43042809838308255 6.744629910815451e-9 0 254 0
0.03129389509558678 -0.11910457164049149 0.1582489162683487 0 0 1 0 0 254
-0.20193858444690704 -0.26373091340065 0.15773054957389832 0 0 1 254 0 0
0.4370231330394745 0.19644346833229065 0.021433213725686073 1 0 0 254 0 254
0.14079676568508148 -0.013485735282301903 0.13459442555904388 0 0 1 0 0 254
-0.4354375898838043 -0.05851561576128006 0.10719777643680573 0 0 1 0 254 0
0.07333184033632278 0.20895835757255554 0.12433693557977676 0 -3.6344155773801834e-7 0.999999999999934 0 0 254
0.28222233057022095 0.052369020879268646 0.15804944932460785 0.9165984241485157 -0.39980911551304965 0.00000106324374044728 0 0 254
0.2990663945674896 -0.19272707402706146 0.07420527935028076 0 1 0 254 0 0
0.12069021910429001 -0.2970554232597351 0.1167144626379013 0 0 1 254 0 0
0.072065569460392 -0.15728943049907684 0.10569895058870316 1 0 0 0 0 254
0.48214247822761536 -0.03483458608388901 0.06415168195962906 1 0 0 254 0 254
0.4422890841960907 0.10983732342720032 0.12982948124408722 0 0 1 254 0 254
-0.322505384683609 -0.22897034883499146 0.10597497969865799 0 1 0 254 0 0
-0.15267695486545563 -0.12778902053833008 0.08422733843326569 0.9026287234479662 0.4304200130183248 6.7727983494965166e-9 0 254 0
0.4849007725715637 -0.149146169424057 0.11700621247291565 1 0 0 254 0 254
0.45863696932792664 0.22516712546348572 0.14931756258010864 0 0 1 254 0 254
0.12620437145233154 0.26750215888023376 0.08538374304771423 0.01806600194734528 0.9998367964691216 -5.0568185778814855e-8 0 0 254
0.48969218134880066 -0.12176607549190521 0.10750249773263931 1 0 0 254 0 254
0.0922011211514473 -0.2094876766204834 0.04747764393687248 0 0 1 0 0 254
-0.1795065850019455 0.035883620381355286 0.1001652404665947 0.9026319364519972 0.43041327500080384 1.0256200310670809e-8 0 254 0
0.11339271068572998 0.2571988105773926 0.05550260841846466 0 1 0 0 0 254
0.43035954236984253 0.1922840178012848 0.0781605988740921 1 0 0 254 0 254
0.02529028244316578 -0.3124202489852905 0.16048958897590637 0 0 1 254 0 0
-0.28978875279426575 -0.28692200779914856 0.07182271033525467 -1 0 0 254 0 0
0.33979371190071106 -0.21733902394771576 0.09760483354330063 -1 0 0 254 0 254
0.4880085587501526 -0.04456537589430809 0.123311348259449 1 0 0 254 0 254
