ply
format ascii 1.0
element vertex 493
property float x
property float y
property float z
property float nx
property float ny
property float nz
property uchar red
property uchar green
property uchar blue
end_header
-0.3303281366825104 0.15992596745491028 0.13092297315597534 0 -1.8259608935977664e-8 0.9999999999999998 0 254 0
0.4228053092956543 -0.011718104593455791 0.04160197451710701 1 0 0 254 0 254
-0.11624176055192947 -0.3091616928577423 0.08101420104503632 1 0 0 254 0 0
0.23081587255001068 0.11266715079545975 0.15729553997516632 0 0 1 0 0 254
0.22462864220142365 0.03505391255021095 0.14456406235694885 0 0 1 0 0 254
-0.3224262297153473 0.07695798575878143 0.12109564244747162 0 1.4039852658242897e-7 0.9999999999999902 0 254 0
0.13598860800266266 -0.29761141538619995 0.07043678313493729 0 0 1 254 0 0
-0.10642296820878983 -0.2873975932598114 0.03959714248776436 0 0 1 0 0 254
0.2204272300004959 0.19512620568275452 0.08813609182834625 0.643511535928215 0.7654364135100936 -3.3853365381887023e-7 0 0 254
0.1434800624847412 -0.25034141540527344 0.052152395248413086 0 0 1 0 0 254
0.06006854772567749 0.20122767984867096 0.1352078765630722 0 -3.6344155773801834e-7 0.999999999999934 0 0 254
-0.37869957089424133 -0.307416707277298 0.08282987773418427 0 1 0 254 0 0
-0.28462448716163635 -0.21952618658542633 0.05036044120788574 0 0 1 0 254 0
0.4917258322238922 0.024852773174643517 0.03438659384846687 1 0 0 254 0 254
0.002735787769779563 0.2319907397031784 0.10459768027067184 0 1 0 0 0 254
0.13603252172470093 -0.2290201038122177 0.015977343544363976 -0.813490084084543 -0.5815787849432981 -1.0269121443664308e-8 0 0 254
0.08893340826034546 -0.2737117111682892 0.12672217190265656 0.4495721441123754 0.8932440244624061 -6.371977266586453e-7 254 0 0
0.2544187605381012 0.2356710135936737 0.1580948829650879 0.6167703905629077 0.7871431161641969 -4.42734179207127e-7 0 0 254
-0.3947802484035492 -0.2995584309101105 0.022034980356693268 1 0 0 254 0 0
0.005708394106477499 0.026573143899440765 0.08198807388544083 0 1 0 0 0 254
-0.33758533000946045 0.1498854160308838 0.12543880939483643 0 -1.8259608935977664e-8 0.9999999999999998 0 254 0
-0.37618884444236755 -0.19273431599140167 0.07321710139513016 0 1 0 254 0 0
0.49188485741615295 -0.06489063799381256 0.13208696246147156 1 0 0 254 0 254
-0.25150227546691895 -0.2638643980026245 0.026896711438894272 0 -1 0 0 254 0
0.07369966059923172 0.031675342470407486 0.06069174408912659 0 1 0 0 0 254
0.4136773943901062 -0.06357872486114502 0.10030050575733185 0 0 1 254 0 254
-0.0952506810426712 -0.13958756625652313 0.03985100984573364 0 0 1 0 0 254
0.47226420044898987 -0.09525296837091446 0.05611339583992958 1 0 0 254 0 254
0.495919406414032 -0.07076097279787064 0.15877965092658997 1 0 0 254 0 254
0.22507521510124207 -0.29506558179855347 0.10148768126964569 0 1 0 254 0 0
-0.48229438066482544 -0.22610144317150116 0.1459050476551056 0 4.3912498881577766e-7 0.9999999999999036 254 0 0
0.06591330468654633 -0.13225309550762177 0.06429536640644073 0 0 1 0 0 254
-0.18209248781204224 -0.1933010369539261 0.013087371364235878 0 -1 0 0 254 0
0.48948901891708374 -0.011305826716125011 0.04764242097735405 1 0 0 254 0 254
-0.4059593975543976 -0.30341556668281555 0.12375475466251373 0 1 0 254 0 0
-0.15886235237121582 -0.13117364048957825 0.09538299590349197 0.9026250741562863 0.4304276658212834 5.218158737487252e-9 0 254 0
-0.31071627140045166 0.21576687693595886 0.1518973559141159 0 -1.8259608935977664e-8 0.9999999999999998 0 254 0
-0.12770256400108337 -0.1617729514837265 0.14333844184875488 0 0 1 0 254 0
0.3120228350162506 -0.26952487230300903 0.10777854174375534 0.9939443123527507 -0.10988495775863716 2.9783265494039237e-10 254 0 0
-0.14845842123031616 -0.02067958004772663 0.1338328868150711 0.9026355166891598 0.4304057667031118 2.615745847808958e-9 0 254 0
0.454160213470459 -0.03979761153459549 0.11974035203456879 1 0 0 254 0 254
0.23617300391197205 -0.12934920191764832 0.00920060183852911 0.8179799343794684 0.5752467531004058 3.678681193355173e-8 0 0 254
0.046022213995456696 -0.20964287221431732 0.04665482044219971 0 0 1 0 0 254
0.0258522629737854 -0.04849087446928024 0.0011562438448891044 0 1 0 0 0 254
0.30603542923927307 -0.19822020828723907 0.04102610424160957 -1 0 0 254 0 254
0.41996753215789795 0.24424263834953308 0.0046060942113399506 0 1 0 254 0 254
-0.3039064407348633 -0.2982087731361389 0.14803315699100494 0.7141662237224871 0.6999761459463802 -1.188443334387596e-7 254 0 0
0.05228092521429062 -0.09971316158771515 0.14728212356567383 0 0 1 0 0 254
-0.1768537163734436 -0.18930108845233917 0.17250505089759827 0 1 0 254 0 0
-0.34021157026290894 -0.19481955468654633 0.16915321350097656 0 1 0 254 0 0
-0.4004822373390198 -0.1998966783285141 0.04530467092990875 0 1 0 254 0 0
0.21813181042671204 0.03946297988295555 0.07642969489097595 0.9996188015978966 0.027608902387523785 -9.700423529584107e-7 0 0 254
0.4915758967399597 0.11149115115404129 0.10390564054250717 1 0 0 254 0 254
0.09782352298498154 0.016707120463252068 0.02268856018781662 0 1 0 0 0 254
-0.31753087043762207 0.17912547290325165 0.07528501749038696 0.9026774072325867 0.4303179039638657 -9.590125036798434e-9 0 254 0
0.2383878082036972 0.10734038054943085 0.04783987998962402 0.9586961841007604 0.2844321124461896 -1.9823225677088913e-7 0 0 254
0.13128170371055603 -0.2811794877052307 0.02934604324400425 0 -1 0 0 0 254
-0.3747810125350952 -0.24392735958099365 0.10519429296255112 0 1 0 254 0 0
-0.3685939311981201 0.06195205822587013 0.008487427607178688 0.9026718085727582 0.4303296480699252 -8.88976620335632e-9 0 254 0
-0.4411301612854004 -0.19186079502105713 0.10477902740240097 0.9099720822156577 -0.4146695185181812 1.8708357302998864e-9 0 254 0
0.48970189690589905 -0.05915873497724533 0.03423205018043518 1 0 0 254 0 254
0.4494045376777649 -0.26032164692878723 0.12675432860851288 0.9980706377188282 -0.062088663405903056 3.232095361373106e-10 254 0 0
-0.27517223358154297 -0.2396223098039627 0.05737261101603508 0 -5.388930048865531e-7 0.9999999999998548 0 254 0
-0.2817515432834625 -0.3052442669868469 0.1720981001853943 0 0 1 254 0 0
-0.3583594262599945 -0.29295095801353455 0.026956191286444664 0 1 0 254 0 0
0.4559304714202881 -0.2208249270915985 0.12270761281251907 0 1 0 254 0 0
0.19399699568748474 0.22085396945476532 0.08631537109613419 0.4107744060565514 0.9117370165397358 3.302570773634995e-7 0 0 254
0.029694801196455956 -0.04138758406043053 0.04168121889233589 0 1 0 0 0 254
0.23387689888477325 0.11055921018123627 0.13740387558937073 0 0.0000014433707065094012 0.9999999999989584 0 0 254
-0.012848920188844204 -0.26556292176246643 0.10845456272363663 0 -1 0 254 0 0
-0.13466282188892365 -0.055140674114227295 0.03455318138003349 0.9026619187412532 0.4303503926504066 9.784859135914858e-9 0 254 0
-0.18253856897354126 0.014389321208000183 0.005478315986692905 0.9026562507327283 0.4303622811226999 1.628887058086343e-8 0 254 0
0.37805306911468506 -0.29553061723709106 0.034818850457668304 0.7657860464217001 0.643095429237227 9.225566024650843e-8 254 0 0
0.0627518817782402 0.05078824609518051 0.15978655219078064 0 1 0 0 0 254
-0.3501373827457428 0.05088319256901741 0.06726395338773727 0 1.4039852658242897e-7 0.9999999999999902 0 254 0
-0.33377528190612793 0.009320288896560669 0.009278697893023491 0.9246870971071478 -0.38072795069912496 1.99835261519683e-8 0 254 0
0.08085658401250839 0.2728944718837738 0.040973104536533356 0 1 0 0 0 254
-0.0016126572154462337 -0.04676450788974762 0.021303903311491013 0 1 0 0 0 254
0.4959429204463959 0.05878187343478203 0.008086164481937885 1 0 0 254 0 254
-0.03549909219145775 -0.19918058812618256 0.10302446037530899 0 0 1 0 0 254
-0.00921949464827776 -0.2588987350463867 0.04489727318286896 0 -1 0 254 0 0
-0.20698335766792297 -0.02592766471207142 0.05812050402164459 0.9026260381870865 0.43042564420197377 1.2954974879097946e-8 0 254 0
-0.46797364950180054 -0.24062404036521912 0.15684399008750916 0.9141278944900308 0.4054259396181043 4.1436277003567996e-10 254 0 0
0.3543604612350464 -0.3023017942905426 0.10822572559118271 0 1 0 254 0 0
0.26466357707977295 -0.08353285491466522 0.17502407729625702 0 0 1 0 0 254
0.09735578298568726 -0.30015829205513 0.05986957997083664 -1 0 0 254 0 0
0.4704335927963257 -0.21761102974414825 0.022652611136436462 0 1 0 254 0 0
0.29295051097869873 -0.20257289707660675 0.1666710078716278 0 0 1 254 0 0
0.17872828245162964 -0.2388959676027298 0.05236946791410446 0 -1 0 0 0 254
0.4990171492099762 0.25473520159721375 0.029291322454810143 1 0 0 254 0 254
-0.1270960122346878 -0.04433496296405792 0.1595870405435562 0.9026387869403417 0.4303989083523195 -2.4220929543953888e-9 0 254 0
-0.16482649743556976 -0.12365879118442535 0.0756215900182724 0.9026275068459477 0.43042256433076154 7.674839253214712e-9 0 254 0
-0.37174662947654724 -0.23818625509738922 0.12352174520492554 0 1 0 254 0 0
0.12752364575862885 0.24212388694286346 0.11567389219999313 0.072822437455613 0.9973449215794615 -0.0000016373850429948958 0 0 254
-0.4675886929035187 -0.1250194013118744 0.17266207933425903 0 0 1 0 254 0
-0.24506302177906036 0.12717878818511963 0.1365097612142563 0.9026754686105412 0.4303219705856761 -1.4977656759737602e-8 0 254 0
-0.3082999289035797 -0.20233850181102753 0.1055108979344368 0 1 0 254 0 0
-0.14500445127487183 -0.008832513354718685 0.10965713113546371 0.9026233870915443 0.43043120364976817 1.2937666537846464e-8 0 254 0
-0.06787135452032089 -0.2960953116416931 0.16483132541179657 0 -0.0000033170219921702815 0.9999999999944988 254 0 0
0.10373128205537796 0.03218642622232437 0.03394476696848869 0 1 0 0 0 254
0.20904946327209473 0.01767418347299099 0.14802534878253937 0 -9.351842322753786e-7 0.9999999999995628 0 0 254
0.21380464732646942 -0.01148589514195919 0.012514111585915089 0.29030313659454215 -0.9569347359581881 -5.511623787077437e-8 0 0 254
0.450703889131546 -0.051465339958667755 0.09234342724084854 1 0 0 254 0 254
-0.4205428659915924 -0.19036972522735596 0.07887972891330719 0 1 0 254 0 0
-0.2703387141227722 -0.21500125527381897 0.06014089286327362 0 -5.388930048865531e-7 0.9999999999998548 0 254 0
0.1822049766778946 -0.059336479753255844 0.05329137668013573 0.56048101895991 -0.828167270172863 2.992016201577764e-7 0 0 254
0.48150724172592163 0.014989356510341167 0.09935710579156876 1 0 0 254 0 254
-0.401714563369751 -0.19872422516345978 0.045235153287649155 0 1 0 254 0 0
-0.21706077456474304 0.13837750256061554 0.12131193280220032 0.9026556772457678 0.4303634839713801 -4.887645375890322e-10 0 254 0
-0.22399939596652985 0.1254195123910904 0.13654683530330658 0.9026662329137842 0.43034134353700887 -9.042808498202802e-9 0 254 0
0.07975335419178009 -0.06674361228942871 0.08811243623495102 0 0 1 0 0 254
-0.23915882408618927 -0.2778209149837494 0.10231148451566696 -1 0 0 254 0 0
0.19359377026557922 0.1973922699689865 0.120737724006176 0.514016857089734 0.8577800829044657 -2.3274297609965167e-9 0 0 254
0.46429091691970825 -0.14730839431285858 0.13608817756175995 1 0 0 254 0 254
-0.3928355574607849 0.024197641760110855 0.11647772043943405 0 0 1 0 254 0
0.46984317898750305 0.06509614735841751 0.12802204489707947 1 0 0 254 0 254
-0.20687703788280487 -0.19139251112937927 0.1646830141544342 0 1 0 254 0 0
-0.00566890649497509 -0.27556052803993225 0.08268403261899948 0 1 0 254 0 0
0.3026752173900604 -0.23813316226005554 0.11557761579751968 0.523448239762061 0.8520574747553186 -0.0000018945207043359146 254 0 0
0.0036667529493570328 -0.07327175885438919 0.025462228804826736 0 1 0 0 0 254
0.12388226389884949 -0.2760530114173889 0.08889943361282349 -1 0 0 254 0 0
-0.4348770081996918 -0.149194598197937 0.06040941923856735 0.9099720822156577 -0.4146695185181812 -3.5229115589748164e-9 0 254 0
-0.28820687532424927 -0.2859756052494049 0.08975166827440262 -1 0 0 254 0 0
-0.4589231312274933 -0.2566121518611908 0.09711651504039764 0.9141313565051155 0.4054181336029722 1.90410023820759e-10 254 0 0
0.2563041150569916 -0.25108015537261963 0.03275611624121666 0 1 0 254 0 0
0.2701852023601532 -0.10964635014533997 0.16955959796905518 0 0 1 0 0 254
0.007961126044392586 0.2689491808414459 0.07518519461154938 0 1 0 0 0 254
0.2446860373020172 -0.07388801872730255 0.11314200609922409 0.8179756254720351 0.5752528801610326 -2.640891475379088e-7 0 0 254
0.45999234914779663 0.18425728380680084 0.08775980025529861 1 0 0 254 0 254
0.4726719558238983 -0.02355552278459072 0.03256388008594513 1 0 0 254 0 254
-0.41642072796821594 -0.03950510546565056 0.0011782136280089617 0 1.4039852658242897e-7 0.9999999999999902 0 254 0
0.06072910875082016 0.0031115750316530466 0.17071674764156342 0 -6.521358955068059e-7 0.9999999999997875 0 0 254
-0.35857847332954407 0.0508500300347805 0.01101743709295988 0.9246758721901813 -0.3807552119004116 -3.4635949301603033e-9 0 254 0
0.41584691405296326 0.23239834606647491 0.1592513620853424 0 0 1 254 0 254
-0.289307177066803 0.153999924659729 0.004536923952400684 0.9026324642288941 0.43041216818309597 2.2470940398127323e-8 0 254 0
-0.17621585726737976 -0.2974558174610138 0.006343980319797993 0.7060877025492878 0.7081243932441755 -0.0000011121295435632301 254 0 0
0.02818271890282631 0.049516886472702026 0.09366916120052338 0 1 0 0 0 254
-0.4609226584434509 -0.24678951501846313 0.16600047051906586 0.914125611383259 0.4054310873788329 3.17165457114351e-10 254 0 0
-0.23387537896633148 0.09975887089967728 0.06534414738416672 0.9026379150573387 0.4304007368731385 1.2141234901327317e-8 0 254 0
0.04987869784235954 -0.30146685242652893 0.16328027844429016 0 0 1 254 0 0
-0.17707781493663788 -0.09886819124221802 0.05581745505332947 0.9026320395845667 0.4304130587184889 9.724310051124013e-9 0 254 0
0.39518505334854126 -0.2990739345550537 0.10347110778093338 0.4846583867604128 0.8747035201383244 6.466340162947708e-7 254 0 0
0.18219518661499023 0.25305455923080444 0.007016162388026714 0.22686309972604235 0.973926657394012 -1.361165536329852e-7 0 0 254
0.03571948781609535 -0.055333323776721954 0.07304401695728302 0 0 1 0 0 254
-0.3041478991508484 0.13630151748657227 0.0017778069013729692 0.9026382018260656 0.43040013546025613 1.7842333929097985e-8 0 254 0
0.27252745628356934 -0.130497545003891 0.10710451006889343 0.8180014896283717 0.5752161011009382 8.661785753071279e-9 0 0 254
0.417537122964859 0.16166263818740845 0.030890189111232758 1 0 0 254 0 254
0.47344067692756653 -0.06891224533319473 0.16308018565177917 0 0 1 254 0 254
0.20162366330623627 -0.019911712035536766 0.04963970184326172 0.26526424074352406 -0.9641757529531437 -2.2688190032072306e-10 0 0 254
-0.01973053812980652 -0.19108335673809052 0.1452936977148056 0 0 1 0 0 254
0.49440687894821167 0.23571068048477173 0.04999063163995743 1 0 0 254 0 254
-0.32554611563682556 0.09636235237121582 0.0956147313117981 0 1.4039852658242897e-7 0.9999999999999902 0 254 0
-0.4437444806098938 -0.08681543916463852 0.02125299721956253 0.924668433318912 -0.380773276929393 -2.550828354165464e-8 0 254 0
0.2796187996864319 0.17737239599227905 0.12013202905654907 0.8958752869309092 0.4443056045859212 1.836741200004346e-11 0 0 254
0.08496980369091034 -0.19901102781295776 0.12004832923412323 0 1 0 254 0 0
-0.20300036668777466 0.11179247498512268 0.1470649093389511 0.9026622628230583 0.4303496709365027 -7.858310321456494e-9 0 254 0
0.4549950957298279 -0.081214539706707 0.1122262105345726 1 0 0 254 0 254
0.13199615478515625 0.23751313984394073 0.1592365950345993 0 0 1 0 0 254
0.04104199633002281 -0.008374937810003757 0.017290478572249413 0 1 0 0 0 254
0.23824001848697662 0.17982526123523712 0.16185162961483002 0 0 1 0 0 254
0.2701660692691803 -0.19193387031555176 0.019336143508553505 -1 0 0 254 0 254
0.47648948431015015 -0.10023459047079086 0.01099423784762621 1 0 0 254 0 254
0.3782329857349396 -0.21555456519126892 0.10408872365951538 0 -1 0 254 0 254
-0.4331415891647339 -0.10564884543418884 0.04638177901506424 0.9246481085629548 -0.38082262975163234 -3.787886991951318e-8 0 254 0
-0.4442167580127716 -0.2718680202960968 0.11995913833379745 0.9142715083520337 0.4051019736013357 5.514285321074244e-9 254 0 0
0.008452439680695534 0.2495257705450058 0.13954053819179535 0 1 0 0 0 254
0.09474071860313416 -0.2016376405954361 0.002272069687023759 -0.8134745291466751 -0.5816005419784221 -3.350486082787356e-8 0 0 254
0.30929744243621826 -0.19647124409675598 0.0737941712141037 0 1 0 254 0 0
0.036532044410705566 0.051789142191410065 0.085731640458107 0 1 0 0 0 254
0.47257012128829956 -0.02106991410255432 0.1303025782108307 1 0 0 254 0 254
0.07104165852069855 -0.07286612689495087 0.13167685270309448 1 0 0 0 0 254
0.19422706961631775 -0.24856530129909515 0.039995402097702026 0 -1 0 0 0 254
0.47867342829704285 -0.2140635997056961 0.12987138330936432 1 0 0 254 0 0
-0.18001873791217804 -0.23183707892894745 0.009350497275590897 0 -1 0 0 254 0
-0.17621266841888428 -0.22522906959056854 0.08019137382507324 0 -1 0 0 254 0
0.033483896404504776 0.20721682906150818 0.1212131604552269 0 0 1 0 0 254
-0.33423227071762085 -0.20136088132858276 0.06017198786139488 0 1 0 254 0 0
0.2548321485519409 0.24385283887386322 0.08724407106637955 0.5826524490671044 0.8127214305010749 -6.258209162855516e-7 0 0 254
0.10219220817089081 -0.2311747968196869 0.07460515946149826 -0.5967438836817255 -0.8024317648800109 -4.734025809297713e-8 254 0 0
0.014461100101470947 -0.24936696887016296 0.013285862281918526 0 0 1 0 0 254
-0.14711005985736847 -0.021393151953816414 0.0001105811825254932 0.9026734605108577 0.43032618290007973 1.233834781501701e-8 0 254 0
0.14795152842998505 0.05031463876366615 0.13268564641475677 -0.04433718611373993 0.9990166234490372 -1.465137288981773e-10 0 0 254
-0.48794040083885193 -0.28619450330734253 0.15661880373954773 0 0 1 254 0 0
0.2836616635322571 -0.20338353514671326 0.07688187062740326 0 1 0 254 0 0
0.23713254928588867 0.24465295672416687 0.07254868000745773 0.49606166813775965 0.8682872919744606 -2.025016590004075e-7 0 0 254
-0.34798455238342285 0.003296963172033429 0.0027264689560979605 0.9246765949491629 -0.380753456653018 1.0212336730065703e-8 0 254 0
-0.11382492631673813 -0.2752911150455475 0.10764268040657043 -0.3679264115231174 -0.929854911103727 -4.208443999089087e-8 254 0 0
-0.4543496072292328 -0.1420140564441681 0.1731950342655182 0 2.722810279465092e-7 0.9999999999999629 0 254 0
-0.11408679932355881 -0.27723175287246704 0.08376719802618027 -0.4125636724893266 -0.9109287656793568 -5.669770305687199e-8 254 0 0
-0.266689270734787 0.1453334242105484 0.13680709898471832 0.9026846807393628 0.4303026460045001 -1.9946193856796932e-8 0 254 0
0.3710964322090149 -0.20547795295715332 0.026265738531947136 -1 0 0 254 0 254
0.0837644562125206 -0.005187537521123886 0.04861210659146309 0 1 0 0 0 254
-0.32401853799819946 0.18426673114299774 0.09577197581529617 0.902689739844344 0.43029203290294643 -1.8550440872462083e-8 0 254 0
-0.40101757645606995 -0.10029090940952301 0.11119960248470306 0.924654886655449 -0.38080617193553606 -3.8322727506339263e-8 0 254 0
-0.09471813589334488 -0.19114090502262115 0.16461366415023804 0 1 0 254 0 0
0.4583510458469391 -0.019657829776406288 0.14293470978736877 0 0 1 254 0 254
0.01659691147506237 0.2162507325410843 0.16137783229351044 0 0 1 0 0 254
0.19884443283081055 0.25675490498542786 0.06825876981019974 0.2710697107287658 0.9625597186280409 -3.607646944342117e-7 0 0 254
0.44070231914520264 0.061263032257556915 0.060861483216285706 1 0 0 254 0 254
-0.16047778725624084 -0.0795668512582779 0.027961863204836845 0.9026529349878867 0.43036923560793006 9.865411770293827e-9 0 254 0
0.1415889412164688 -0.23404338955879211 0.043290942907333374 0 0 1 0 0 254
-0.3327953815460205 -0.26164740324020386 0.16262413561344147 1 0 0 254 0 0
-0.37779977917671204 -0.08979048579931259 0.06128792092204094 0.9099720934611971 -0.4146694938403915 9.593343238841972e-9 0 254 0
0.23502971231937408 0.03277983143925667 0.124458447098732 0 0 1 0 0 254
0.007381226401776075 -0.20058558881282806 0.11082089692354202 0 0 1 0 0 254
0.1877724677324295 0.063287153840065 0.17046184837818146 -0.4112415209236132 0.9115264184148479 -4.825498526950219e-7 0 0 254
-0.25942665338516235 0.09134185314178467 0.12770599126815796 0 1.4039852658242897e-7 0.9999999999999902 0 254 0
-0.13652291893959045 -0.02673381380736828 0.07797664403915405 0.9026414951903038 0.4303932285255109 1.1469277337615467e-8 0 254 0
-0.3536546528339386 -0.1972072720527649 0.03453093022108078 0 1 0 254 0 0
0.3738740384578705 -0.2906610667705536 0.053833939135074615 0.8606412075248241 0.5092118536617498 7.598921118142436e-7 254 0 0
0.20614652335643768 -0.2015363872051239 0.037737246602773666 0 -1 0 0 0 254
0.45092591643333435 0.13973994553089142 0.16124767065048218 0 0 1 254 0 254
-0.19594061374664307 -0.19620195031166077 0.013274206779897213 -0.9099722254181939 -0.4146692042670398 1.9348884184161937e-9 0 254 0
0.11696728318929672 -0.008577287197113037 0.026031041517853737 0 0 1 0 0 254
0.4976121187210083 -0.07604639232158661 0.023869866505265236 1 0 0 254 0 254
0.06772563606500626 -0.29454198479652405 0.00617545610293746 0 0 1 0 0 254
0.15568092465400696 0.2384731024503708 0.036115676164627075 0.1855034544900567 0.9826436120854065 -2.4947439867832195e-8 0 0 254
0.17185069620609283 -0.29407742619514465 0.12336523830890656 0.9773620601884241 0.21157363565491627 2.740636672396531e-10 254 0 0
0.45736318826675415 0.13911983370780945 0.06780298799276352 1 0 0 254 0 254
0.2836129367351532 -0.2049729824066162 0.06632380187511444 0 1 0 254 0 0
-0.4345102310180664 -0.10901664942502975 0.17224594950675964 0 0 1 0 254 0
0.4173829257488251 -0.07713975757360458 0.16699828207492828 0 0 1 254 0 254
-0.277226984500885 0.22816912829875946 0.012111080810427666 0.9026286776700676 0.4304201090186012 2.8852920611542e-8 0 254 0
0.3616015613079071 -0.2074475884437561 0.026102542877197266 -1 0 0 254 0 254
-0.17260046303272247 0.05873259902000427 0.1030435785651207 0.9026296185271232 0.4304181359533773 1.2942942784274693e-8 0 254 0
-0.2915433645248413 -0.2656972110271454 0.14509105682373047 0.7140548102850033 0.7000897998891391 -1.8189801342994903e-7 254 0 0
0.21866478025913239 -0.2068348377943039 0.09725737571716309 0 -1 0 0 0 254
0.052476804703474045 -0.30301374197006226 0.02127351239323616 -0.4303304657937479 -0.9026714187375695 0.0000020099021675132447 254 0 0
-0.1972476989030838 0.0036255379673093557 0.051718227565288544 0.9026277825867959 0.43042198608161664 1.6518916313973422e-8 0 254 0
-0.2503581941127777 0.1564573496580124 0.06230882555246353 0.9026422639308151 0.4303916162820239 1.2815261937600213e-8 0 254 0
-0.0008247959776781499 -0.03310246020555496 0.0729026272892952 0 1 0 0 0 254
0.4852411448955536 -0.04527819901704788 0.052885375916957855 1 0 0 254 0 254
-0.4272270202636719 -0.23492904007434845 0.1136428713798523 0 1 0 254 0 0
-0.14802607893943787 -0.1929607093334198 0.03929982706904411 0 -1 0 0 254 0
0.3513031005859375 -0.21826456487178802 0.06667397916316986 -1 0 0 254 0 254
0.22375907003879547 0.004472215659916401 0.1384289264678955 0 -0.0000019781025457593794 0.9999999999980436 0 0 254
-0.32522401213645935 0.07198129594326019 0.12249606102705002 0 1.4039852658242897e-7 0.9999999999999902 0 254 0
-0.08734020590782166 -0.22736303508281708 0.08708081394433975 0 0 1 0 0 254
-0.1603710949420929 -0.1087084412574768 0.0312079768627882 0.9026506856905635 0.43037395323410943 8.246612024027499e-9 0 254 0
0.4744843542575836 -0.21457457542419434 0.03345935046672821 1 0 0 254 0 0
0.28445690870285034 0.13432304561138153 0.012465240433812141 -1 0 0 254 0 254
0.1895642876625061 0.19385729730129242 0.14755037426948547 0 0 1 0 0 254
-0.08652017265558243 -0.20257863402366638 0.10997261852025986 0 1 0 254 0 0
0.2300102710723877 0.1382247507572174 0.008394983597099781 0.8680379931317499 0.49649777691325475 -4.640313451046279e-11 0 0 254
0.09840714186429977 -0.3153994083404541 0.08501619845628738 0 0 1 254 0 0
-0.3290295898914337 0.0610516183078289 0.07598252594470978 0 1.4039852658242897e-7 0.9999999999999902 0 254 0
0.4029240608215332 -0.26562708616256714 0.0059989579021930695 0.5141349264917474 0.857709319852201 -1.1012762559811357e-10 254 0 0
0.28146442770957947 0.12026391923427582 0.10490557551383972 0.9949274773757475 0.10059480484961113 2.2246345466663776e-8 0 0 254
-0.46287524700164795 -0.1428719460964203 0.12167755514383316 0 0 1 0 254 0
-0.40725958347320557 -0.018876882269978523 0.03134520351886749 0 1.4039852658242897e-7 0.9999999999999902 0 254 0
-0.09120451658964157 -0.2342204749584198 0.1000184565782547 0 -1 0 254 0 0
0.16759736835956573 -0.28916043043136597 0.09553831070661545 0 0 1 254 0 0
-0.1984332799911499 -0.24578961730003357 0.04148784652352333 0 -1 0 0 254 0
0.4830278754234314 0.06411087512969971 0.06386317312717438 1 0 0 254 0 254
0.1940087527036667 -0.2615245580673218 0.0722859650850296 0 -1 0 0 0 254
0.04475730285048485 -0.2762003540992737 0.000536541745532304 0 0 1 0 0 254
-0.15864911675453186 -0.22327546775341034 0.044335998594760895 0 -1 0 0 254 0
-0.24864211678504944 0.19312283396720886 0.10959915071725845 0.9026626758280926 0.4303488046536993 -1.1559509777331119e-9 0 254 0
-0.1721559464931488 0.014713534153997898 0.040458690375089645 0.9026444554311586 0.43038702011025753 1.5736645764233594e-8 0 254 0
-0.24686363339424133 0.20555129647254944 0.08598625659942627 0.9026504910223123 0.4303743615239859 8.926108894513146e-9 0 254 0
0.4879310131072998 0.20877636969089508 0.17292748391628265 0 0 1 254 0 254
0.47223934531211853 -0.2876838743686676 0.1296359896659851 1 0 0 254 0 0
-0.12201111763715744 -0.31252574920654297 0.16536837816238403 0 6.51627146908002e-7 0.9999999999997877 254 0 0
0.21501149237155914 -0.04414555802941322 0.0026689660735428333 0.8179993493178632 0.5752191447748828 6.903234491163968e-8 0 0 254
0.03866187855601311 -0.12591388821601868 0.010912632569670677 0 0 1 0 0 254
0.2933371365070343 -0.13209371268749237 0.15214499831199646 0.8179927569671449 0.575228519415788 -9.886610408524938e-8 0 0 254
-0.2915838956832886 0.1998043954372406 0.015366685576736927 0.9026373067843316 0.43040201254307325 2.135447916639483e-8 0 254 0
0.4657933712005615 0.2630002498626709 0.04206974431872368 0 1 0 254 0 254
-0.11883588880300522 -0.07360922545194626 0.1000143438577652 0.902637731417815 0.43040112200237163 7.895460384495198e-9 0 254 0
0.44310131669044495 -0.2701457142829895 0.01894993893802166 0.9809101370552628 -0.19446157209645157 -4.7308596858726886e-8 254 0 0
0.4386010468006134 0.13832876086235046 0.13155454397201538 0 0 1 254 0 254
0.3133154511451721 -0.1584324687719345 0.1618662029504776 0.8180028687286889 0.5752141399093343 4.621081233872105e-9 0 0 254
0.04211719334125519 -0.22919104993343353 0.14441725611686707 0 0.000003005216285587339 0.9999999999954845 254 0 0
-0.06775078177452087 -0.2042694389820099 0.16488856077194214 0 0 1 254 0 0
-0.4748079180717468 -0.2993139326572418 0.1025124043226242 0.9142715083520337 0.4051019736013357 4.295097048727243e-9 254 0 0
-0.3621401786804199 0.11045446991920471 0.0039025985170155764 0.9026654984554724 0.43034288410305277 -1.6519169413005834e-9 0 254 0
0.18805621564388275 -0.3130490183830261 0.14299747347831726 0.45633860875880206 0.8898062003355267 -7.303352075546475e-7 254 0 0
0.24057769775390625 -0.19181662797927856 0.04467204958200455 0 -1 0 0 0 254
-0.23054590821266174 0.14248962700366974 0.14604532718658447 0.9026731280245524 0.4303268803390861 -1.3098504543275523e-8 0 254 0
0.24539580941200256 -0.19917577505111694 0.12206878513097763 0 -1 0 0 0 254
0.21270596981048584 -0.101676344871521 0.06899423897266388 0.8179808192081613 0.575245494904136 -2.0262932144038506e-7 0 0 254
0.4368557333946228 -0.11466242372989655 0.16289743781089783 0 0 1 254 0 254
-0.26223623752593994 -0.19186557829380035 0.0017653589602559805 -0.9099721814325399 -0.41466930079149167 2.960506920038579e-9 0 254 0
0.12378662079572678 -0.010243171826004982 0.022110458463430405 0 0 1 0 0 254
-0.213053897023201 -0.29406923055648804 0.0014565028250217438 0 -1 0 0 254 0
0.02909819222986698 -0.26998770236968994 0.1713329255580902 0 0 1 254 0 0
-0.42660099267959595 -0.2155345380306244 0.08652551472187042 0 1 0 254 0 0
-0.3709527552127838 -0.05743000656366348 0.06167280673980713 0.9246764326218258 -0.3807538508718912 -5.85056545609431e-9 0 254 0
-0.38152438402175903 -0.0978231206536293 0.09546622633934021 0.9099720822156577 -0.4146695185181812 2.5517945830757603e-9 0 254 0
0.4247705638408661 -0.1218230128288269 0.060243844985961914 1 0 0 254 0 254
0.14965443313121796 -0.03668325021862984 0.02306644804775715 0 0 1 0 0 254
0.3689199388027191 -0.2779225707054138 0.10553651303052902 1 0 0 254 0 0
-0.29002711176872253 -0.21066135168075562 0.12382151931524277 0 1 0 254 0 0
0.16626210510730743 0.213545024394989 0.15658481419086456 0 0 1 0 0 254
0.47374439239501953 -0.09649870544672012 0.0569365955889225 1 0 0 254 0 254
-0.34359341859817505 0.0688968077301979 0.08884396404027939 0 1.4039852658242897e-7 0.9999999999999902 0 254 0
0.2364172637462616 -0.12355466187000275 0.10015840083360672 0.8179827124454648 0.5752428027714228 -1.9478846484420714e-7 0 0 254
-0.27587419748306274 -0.24564826488494873 0.07493945211172104 0 1 0 254 0 0
-0.15299521386623383 -0.122752845287323 0.14297111332416534 0 0 1 0 254 0
-0.334998220205307 0.04756079241633415 0.15743501484394073 0 -1.8259608935977664e-8 0.9999999999999998 0 254 0
0.4485709071159363 -0.04243645444512367 0.03682244196534157 1 0 0 254 0 254
0.461311399936676 0.0728757381439209 0.03620246797800064 1 0 0 254 0 254
0.23704157769680023 0.1566450148820877 0.04174089804291725 0.8342429280983482 0.5513970773570477 -1.7457819663920733e-11 0 0 254
0.07562776654958725 0.26704728603363037 0.13240957260131836 0 1 0 0 0 254
-0.1201217919588089 -0.12880834937095642 0.14183829724788666 0.9026296643047966 0.43041803995303224 -3.734248428040401e-10 0 254 0
-0.2570667862892151 -0.3156774044036865 0.0182147528976202 0 -1 0 0 254 0
-0.3981653153896332 -0.11183355003595352 0.030427567660808563 0.9099720934611971 -0.4146694938403915 1.3434447654418381e-8 0 254 0
0.36779364943504333 -0.2198115587234497 0.1643710881471634 0 0 1 254 0 0
0.4230486750602722 0.14060603082180023 0.09513450413942337 1 0 0 254 0 254
0.12255027145147324 0.0019312986405566335 0.09481749683618546 -0.32669896223121103 0.9451284505699522 -5.396742663816488e-7 0 0 254
-0.031585581600666046 -0.2580493688583374 0.13932545483112335 0 -1 0 254 0 0
-0.2890138328075409 -0.3113325536251068 0.16292579472064972 0 0 1 254 0 0
0.19082334637641907 -0.21033445000648499 0.10668013244867325 0 -1 0 0 0 254
-0.11176895350217819 -0.22213762998580933 0.16288267076015472 0 -0.0000034701618005574592 0.999999999993979 254 0 0
0.21487517654895782 0.2561943531036377 0.004227366764098406 0.34869202244718867 0.9372373624013354 8.229861633849799e-7 0 0 254
-0.26653343439102173 -0.23648299276828766 0.06796734780073166 0 -5.388930048865531e-7 0.9999999999998548 0 254 0
0.46691784262657166 -0.01878112182021141 0.07769107818603516 1 0 0 254 0 254
-0.2895548641681671 -0.23856008052825928 0.044349174946546555 0 -5.388930048865531e-7 0.9999999999998548 0 254 0
0.1806735098361969 0.0028072656132280827 0.16574786603450775 0 0 1 0 0 254
-0.3943096697330475 -0.10740868747234344 0.14698733389377594 0.9099720709701181 -0.41466954319596994 -1.631960698695363e-8 0 254 0
0.4889849126338959 -0.12984615564346313 0.11146216839551926 1 0 0 254 0 254
0.2000848352909088 0.059213489294052124 0.0991191416978836 0 0 1 0 0 254
-0.3651900291442871 0.031702183187007904 0.13930094242095947 0 -1.8259608935977664e-8 0.9999999999999998 0 254 0
0.27589303255081177 -0.141408309340477 0.05582861229777336 0.8179770524307817 0.5752508511046723 2.109535254602026e-8 0 0 254
0.10852064192295074 -0.29698628187179565 0.10703133791685104 0 0 1 254 0 0
-0.009037714451551437 -0.19114238023757935 0.1754700094461441 0 0 1 254 0 0
-0.36334699392318726 0.04880988597869873 0.03273431584239006 0.9246892843507961 -0.38072263842174214 -2.3097163967514366e-9 0 254 0
0.31947261095046997 -0.21391867101192474 0.05344626307487488 -1 0 0 254 0 254
0.09861423820257187 0.02698957547545433 0.14652055501937866 0 0 1 0 0 254
-0.27224716544151306 0.21587985754013062 0.07065229117870331 0.9026542429835496 0.4303664922177318 7.981947656916243e-9 0 254 0
-0.29194486141204834 -0.27747219800949097 0.12528668344020844 -1 0 0 254 0 0
-0.12576258182525635 -0.23425310850143433 0.08254903554916382 0 1 0 254 0 0
0.002150304149836302 -0.009107607416808605 0.03690953180193901 0 1 0 0 0 254
-0.44655588269233704 -0.27476900815963745 0.002134225331246853 0.9140767699036424 0.40554119238681996 0 254 0 0
0.2807284891605377 -0.14946706593036652 0.04772021993994713 0.8179694512748982 0.5752616594046935 1.7181703378465494e-8 0 0 254
0.03427768498659134 0.04706796631217003 0.02791275829076767 0 1 0 0 0 254
0.467878520488739 -0.13993799686431885 0.11994373053312302 1 0 0 254 0 254
0.02068779431283474 -0.3011694550514221 0.053711727261543274 0.7826403821561742 0.6224741217259058 -1.4879386319071445e-10 254 0 0
0.0642126202583313 0.23544885218143463 0.13890700042247772 0 0 1 0 0 254
0.04271646961569786 -0.14665649831295013 0.11018900573253632 1 0 0 0 0 254
-0.4440723955631256 -0.08419743180274963 0.1310337781906128 0 0 1 0 254 0
0.3212590515613556 -0.2190144807100296 0.12251422554254532 0 1 0 254 0 0
-0.09992021322250366 -0.16293591260910034 0.05798107758164406 0 0 1 0 0 254
-0.31273153424263 0.1859881430864334 0.04545128718018532 0.9026611269203773 0.4303520534943858 3.2106576763128794e-9 0 254 0
-0.009516584686934948 -0.24177643656730652 0.003220292506739497 1 0 0 0 0 254
0.1826820969581604 -0.08261749893426895 0.15417329967021942 0 0 1 0 0 254
0.004046016372740269 -0.15154936909675598 0.13958536088466644 0 0 1 0 0 254
0.019232582300901413 0.03675422444939613 0.048714037984609604 0 1 0 0 0 254
-0.371462881565094 -0.31031090021133423 0.0951765775680542 0 1 0 254 0 0
0.4300670921802521 0.2586366832256317 0.051657695323228836 0 1 0 254 0 254
-0.26045358180999756 0.14777493476867676 0.022419080138206482 0.9026282530179235 0.4304209995502208 2.379997914153259e-8 0 254 0
-0.41342106461524963 -0.08331896364688873 0.005883431993424892 0 1.4039852658242897e-7 0.9999999999999902 0 254 0
0.024354472756385803 -0.2241460382938385 0.16702575981616974 0 0 1 254 0 0
-0.3180183470249176 0.17707759141921997 0.029698770493268967 0.9026563196586163 0.4303621365552061 6.7548638011467754e-9 0 254 0
-0.19205710291862488 -0.2410685420036316 0.041720639914274216 0 -1 0 0 254 0
0.17981024086475372 -0.2975480854511261 0.16410529613494873 0 0 1 254 0 0
0.23602697253227234 0.12958885729312897 0.007619411684572697 0.9061144125769967 0.42303270715187513 1.895148822329856e-11 0 0 254
-0.23097360134124756 0.04987045004963875 0.11149797588586807 0.9026596127323816 0.43035522948121196 -7.676172737144738e-9 0 254 0
-0.34734266996383667 -0.26298484206199646 0.049165379256010056 0 1 0 254 0 0
-0.14860066771507263 -0.08107703924179077 0.16813062131404877 0 0 1 0 254 0
0.4600682854652405 0.18086835741996765 0.026182454079389572 1 0 0 254 0 254
-0.15943288803100586 -0.03754430264234543 0.15040917694568634 0.9026485863405705 0.4303783563068305 -7.891496504283643e-9 0 254 0
0.17036806046962738 -0.30423951148986816 0.014327354729175568 0 -1 0 0 0 254
0.422222375869751 -0.07578607648611069 0.10114472359418869 0 0 1 254 0 254
-0.39086127281188965 0.01023157499730587 0.09633762389421463 0 -1.8259608935977664e-8 0.9999999999999998 0 254 0
-0.4762212634086609 -0.28807777166366577 0.14544318616390228 0 0 1 254 0 0
-0.06861559301614761 -0.24041545391082764 0.06626739352941513 0 0 1 0 0 254
0.44749295711517334 -0.2953101694583893 0.08155832439661026 1 0 0 254 0 0
-0.036703355610370636 -0.19970810413360596 0.09519677609205246 0 0 1 0 0 254
0.11293856799602509 0.03373393416404724 0.16486239433288574 0 0 1 0 0 254
0.437528133392334 -0.023577436804771423 0.014703227207064629 1 0 0 254 0 254
-0.2754454016685486 -0.2954058051109314 0.0834735631942749 0.7140389053734527 0.7001060216946298 -1.1184583765975241e-10 254 0 0
0.11015624552965164 0.23965907096862793 0.016597097739577293 0.033715623547553336 0.9994314667486816 -0.000001174136826926658 0 0 254
-0.19636572897434235 0.06391220539808273 0.06047726422548294 0.9026256940439897 0.4304263658880641 1.980948946901829e-8 0 254 0
0.033731069415807724 -0.06650471687316895 0.018553506582975388 -0.05763180448834174 0.9983379062779383 -1.3422798738684871e-10 0 0 254
0.0024471012875437737 0.016590315848588943 0.0020518233068287373 0 1 0 0 0 254
0.4205682575702667 -0.15763631463050842 0.027852527797222137 1 0 0 254 0 254
-0.321391224861145 -0.22254417836666107 0.10506981611251831 0 1 0 254 0 0
-0.4171793460845947 -0.2410518079996109 0.11330521106719971 0 1 0 254 0 0
0.31483596563339233 -0.15473763644695282 0.0886196717619896 0.8179679962424818 0.5752637283221143 5.248987816914201e-9 0 0 254
0.001116866827942431 -0.07901047170162201 0.1045195460319519 0 -6.521358955068059e-7 0.9999999999997875 0 0 254
-0.11112219840288162 -0.29029837250709534 0.16552414000034332 0 0 1 254 0 0
-0.4136624038219452 -0.11846968531608582 0.14221389591693878 0 2.722810279465092e-7 0.9999999999999629 0 254 0
-0.19873541593551636 -0.05463149771094322 0.05863902345299721 0.9026234102489767 0.43043115508813645 1.2957548743591807e-8 0 254 0
0.01236823108047247 -0.1537012904882431 0.025950705632567406 0 2.8395797357915165e-7 0.9999999999999598 0 0 254
0.4506484270095825 0.13778150081634521 0.13777612149715424 0 0 1 254 0 254
0.035223398357629776 0.26991748809814453 0.15728560090065002 0 1 0 0 0 254
-0.3346793055534363 -0.21993418037891388 0.06733962893486023 0 1 0 254 0 0
-0.30678513646125793 0.16375507414340973 0.043149709701538086 0.9026580064533641 0.4303585985961454 4.071805653065318e-9 0 254 0
0.39654502272605896 -0.20446175336837769 0.08551966398954391 0 -1 0 254 0 254
0.4524548351764679 0.002286841394379735 0.16336384415626526 0 0 1 254 0 254
0.39287757873535156 -0.20185308158397675 0.10257784277200699 0 -1 0 254 0 254
0.35167428851127625 -0.189949631690979 0.0050451443530619144 -1 0 0 254 0 254
-0.37954482436180115 -0.05319534242153168 0.11687210947275162 0.9246540940401561 -0.38080809651946285 -3.8355051830831114e-8 0 254 0
0.046907130628824234 0.007418827153742313 0.030817948281764984 0 1 0 0 0 254
0.15442690253257751 -0.05412779748439789 0.09735933691263199 0 0 1 0 0 254
0.42965471744537354 0.19527041912078857 0.15301132202148438 0 0 1 254 0 254
-0.4177100956439972 -0.14407826960086823 0.02059452049434185 0.9099720934611971 -0.4146694938403915 1.2625721215866005e-8 0 254 0
0.25773507356643677 0.017255552113056183 0.15501654148101807 0 0 1 0 0 254
-0.32863107323646545 -0.2529163360595703 0.13421344757080078 0 0 1 254 0 0
-0.19881795346736908 0.014184016734361649 0.06809090822935104 0.9026260266084849 0.4304256684829316 1.4733319273968407e-8 0 254 0
-0.2770102322101593 0.2607384920120239 0.17564748227596283 0 1.4039852658242897e-7 0.9999999999999902 0 254 0
-0.3199642598628998 0.14416997134685516 0.06914209574460983 0.9026765355146343 0.43031973256091455 -1.0717126893376465e-8 0 254 0
0.04145451635122299 -0.05343835428357124 0.16614334285259247 0 0 1 0 0 254
-0.2827284336090088 0.25716352462768555 0.1330007165670395 0.9026869754297145 0.43029783219248735 -1.465639556392527e-8 0 254 0
0.42286691069602966 -0.14693784713745117 0.13359783589839935 0 0 1 254 0 254
0.2760002613067627 -0.2996537983417511 0.10182566940784454 0 -1 0 254 0 0
0.15954996645450592 0.05724635720252991 0.1554277390241623 -0.06820300080304495 0.9976714643014803 -7.658420267122052e-11 0 0 254
-0.4185972511768341 -0.24345237016677856 0.08544596284627914 0 1 0 254 0 0
-0.12320705503225327 -0.15415328741073608 0.08999025076627731 0.9026383281115082 0.4303998706134345 3.6769014986852428e-9 0 254 0
-0.215646430850029 0.03494871407747269 0.11560625582933426 0.9026551721457022 0.4303645433799264 -5.888326636024783e-9 0 254 0
-0.2772164046764374 -0.2210056036710739 0.02449139766395092 0 1.4039852658242897e-7 0.9999999999999902 0 254 0
0.17053894698619843 0.04533667862415314 0.09455020725727081 0 3.6852469520451675e-7 0.999999999999932 0 0 254
0.49648338556289673 0.13635191321372986 0.03507319092750549 1 0 0 254 0 254
0.43050143122673035 0.11135084182024002 0.014881870709359646 1 0 0 254 0 254
0.2712137997150421 -0.24054834246635437 0.09353908896446228 0 1 0 254 0 0
0.0020583290606737137 0.02388543076813221 0.05440269783139229 0 1 0 0 0 254
-0.3018180727958679 0.10293429344892502 0.09345971792936325 0.9246823244400014 -0.3807395420339681 -5.422621049818609e-9 0 254 0
-0.18144994974136353 -0.31173598766326904 0.13134893774986267 0.48479849712539846 0.8746258726935506 1.209866977454511e-8 254 0 0
0.18581165373325348 -0.1904531866312027 0.04315094277262688 -0.8134868804552715 -0.5815832660308845 -6.48346403852827e-9 0 0 254
0.23161323368549347 -0.07405120879411697 0.10398901253938675 0.8179722574598421 0.5752576692456698 -2.989648120350097e-7 0 0 254
-0.2469354122877121 -0.1942043900489807 0.1493886560201645 0 1 0 254 0 0
0.20459863543510437 0.047795169055461884 0.003719385713338852 0.9916200474243516 0.12918855036777233 4.082990766968383e-9 0 0 254
-0.40409353375434875 -0.022409671917557716 0.15396061539649963 0 0 1 0 254 0
-0.4648399353027344 -0.28250935673713684 0.13169753551483154 0.9140767699036424 0.40554119238681996 0 254 0 0
-0.4410061538219452 -0.15291669964790344 0.004873138852417469 0.9099720934611971 -0.4146694938403915 7.770118068706809e-9 0 254 0
0.043015073984861374 -0.021970858797430992 0.04545428976416588 0 1 0 0 0 254
-0.44231441617012024 -0.2866927981376648 0.1660722941160202 0.9141136887353057 0.4054579683108099 -5.202481934425164e-8 254 0 0
0.18874405324459076 -0.22577503323554993 0.1381950080394745 0 1 0 254 0 0
0.06312306970357895 -0.14603984355926514 0.002914987737312913 -0.8134767415272705 -0.5815974475478499 -2.7224929873205194e-8 0 0 254
0.4843558669090271 -0.09491024166345596 0.0840969905257225 1 0 0 254 0 254
-0.32377296686172485 0.06865244358778 0.07317586988210678 0.9246719947874629 -0.38076462815730944 -1.0604176057314595e-8 0 254 0
0.1129317432641983 0.23274415731430054 0.14814738929271698 0 0 1 0 0 254
-0.2905566394329071 0.12354405224323273 0.07226799428462982 0.9246772461083502 -0.380751875280316 -1.5012864176920336e-9 0 254 0
-0.38981032371520996 0.021960251033306122 0.1557537019252777 0 0 1 0 254 0
0.2018156796693802 0.25477707386016846 0.03145807608962059 0.2937912329516768 0.9558696100623416 -2.5612889452627613e-8 0 0 254
-0.1635245382785797 -0.2970852851867676 0.0011263543274253607 0 0 1 0 0 254
-0.20083796977996826 0.06398764997720718 0.0020142539869993925 0.9026511218739657 0.43037303839770297 2.0051004206258455e-8 0 254 0
-0.1829099804162979 -0.19742897152900696 0.17398500442504883 0 0 1 254 0 0
0.04525825008749962 -0.09946614503860474 0.021627075970172882 0 -0.0000013482831491261573 0.9999999999990912 0 0 254
0.44446587562561035 0.2577816843986511 0.03819933906197548 0 1 0 254 0 254
0.3109116852283478 -0.2956606149673462 0.008654365316033363 0 -1 0 254 0 254
-0.3444010615348816 0.12820929288864136 0.1003870740532875 0 1.4039852658242897e-7 0.9999999999999902 0 254 0
-0.21345148980617523 -0.3122497498989105 0.046136535704135895 0 1 0 254 0 0
0.36188241839408875 -0.18957428634166718 0.06440500915050507 -1 0 0 254 0 254
0.04635820537805557 -0.11790251731872559 0.06841374933719635 0 2.8395797357915165e-7 0.9999999999999598 0 0 254
-0.276278018951416 -0.3009119927883148 0.08205258846282959 0.7140262755989821 0.7001189025831587 -3.138625152081309e-9 254 0 0
-0.41336414217948914 -0.08809839934110641 0.007839933969080448 0 0 1 0 254 0
-0.2953164577484131 0.1464719921350479 0.12932878732681274 0 1.4039852658242897e-7 0.9999999999999902 0 254 0
-0.22077959775924683 0.1370064616203308 0.13129717111587524 0.9026620450122855 0.43035012779623816 -5.312537113461639e-9 0 254 0
-0.17207278311252594 -0.27509474754333496 0.06655475497245789 0.9437181947577874 0.3307506143332652 -0.0000011273276638643205 254 0 0
-0.29996609687805176 -0.21349020302295685 0.06601627916097641 0 1 0 254 0 0
0.21321474015712738 -0.1997547447681427 0.17137707769870758 0 0 1 254 0 0
-0.4756968021392822 -0.25781193375587463 0.11317043751478195 0.9141305554052467 0.40541993990736935 3.2928095888839774e-10 254 0 0
0.02123495191335678 0.2745957374572754 0.10098465532064438 0 1 0 0 0 254
-0.276491641998291 -0.2832149863243103 0.17174838483333588 0 0.000003498583055239995 0.99999999999388 254 0 0
-0.3644004464149475 0.02586493268609047 0.09831506013870239 0.9246973227032215 -0.38070311449408195 -1.1494993192349677e-8 0 254 0
-0.25664782524108887 0.15164412558078766 0.12054451555013657 0.9026724625114244 0.4303282763467457 -1.062812229852351e-8 0 254 0
-0.12429073452949524 -0.07958544790744781 0.07562077045440674 0.9026466011344063 0.4303825199290789 7.862988481970894e-9 0 254 0
-0.3454534411430359 -0.26561638712882996 0.16880007088184357 0 0 1 254 0 0
-0.4319237768650055 -0.08869515359401703 0.14348137378692627 0 0 1 0 254 0
-0.4807375371456146 -0.26339206099510193 0.14321871101856232 0.914126531506073 0.4054290127712574 3.4128867001390034e-10 254 0 0
0.41403961181640625 0.0688534751534462 0.016376648098230362 1 0 0 254 0 254
0.09920581430196762 -0.30188897252082825 0.01725931093096733 0 -1 0 0 0 254
-0.13501186668872833 -0.2636924386024475 0.11406521499156952 0 -1 0 254 0 0
0.18291953206062317 0.20811669528484344 0.019811078906059265 0.41762409347381796 0.908619896628921 4.696075646419287e-7 0 0 254
-0.239541158080101 0.04074224457144737 0.10070479661226273 0.9026585799337594 0.4303573957444775 -6.906447844285378e-9 0 254 0
-0.11396300047636032 -0.216410830616951 0.09868273884057999 0 1 0 254 0 0
0.33950290083885193 -0.280253529548645 0.11846254765987396 -1 0 0 254 0 0
0.0157859455794096 -0.07674720883369446 0.06496135890483856 0 0 1 0 0 254
0.14030416309833527 0.022416114807128906 0.05918699875473976 0 0 1 0 0 254
0.16359251737594604 -0.2395624965429306 0.020970718935132027 0 -1 0 0 0 254
0.3345029056072235 -0.19813968241214752 0.16361509263515472 0 1 0 254 0 0
-0.24758385121822357 0.06610499322414398 0.16301101446151733 0 1.4039852658242897e-7 0.9999999999999902 0 254 0
0.01757996901869774 0.02830769680440426 0.029637577012181282 0 1 0 0 0 254
-0.40749821066856384 -0.3127548396587372 0.17095576226711273 0 -4.655684335829797e-7 0.9999999999998916 254 0 0
0.18369995057582855 0.06293552368879318 0.009336746297776699 -0.3292659757334135 0.9442372144881396 -4.729421387912884e-8 0 0 254
-0.11138135939836502 -0.16178974509239197 0.14776644110679626 0 1.4039852658242897e-7 0.9999999999999902 0 254 0
0.19092974066734314 0.2638387978076935 0.11116263270378113 0.21984431040201755 0.9755349707641304 -2.971420925899273e-7 0 0 254
0.2012844830751419 -0.007110354956239462 0.09569087624549866 0 0 1 0 0 254
-0.46026575565338135 -0.2670276165008545 0.13541583716869354 0.9141252654232367 0.40543186741411563 1.3678969094486542e-10 254 0 0
-0.34571409225463867 0.1399209201335907 0.018065493553876877 0.9026640874157744 0.43034584381616503 1.6919553671837889e-10 0 254 0
0.44724857807159424 0.24104103446006775 0.15483519434928894 0 0 1 254 0 254
0.03231427073478699 -0.23641762137413025 0.13549625873565674 0 0.000003005216285587339 0.9999999999954845 254 0 0
-0.2632751762866974 0.18829967081546783 0.061527423560619354 0.9026467389924449 0.430382230797584 1.1799804931831648e-8 0 254 0
0.189718559384346 -0.25839802622795105 0.028712261468172073 0 -1 0 0 0 254
0.038546930998563766 -0.27482056617736816 0.13900141417980194 0.7723082476347389 0.63524795996157 1.498045099203143e-7 254 0 0
-0.49223828315734863 -0.2914149761199951 0.07678079605102539 0.9141296255059008 0.40542203661424425 1.8462584454829188e-10 254 0 0
0.032013095915317535 -0.20739437639713287 0.0917760580778122 1 0 0 0 0 254
0.4107576310634613 -0.2943313419818878 0.1484856754541397 0.2973038863512112 0.9547829068225224 2.0517207566487705e-8 254 0 0
-0.4168224632740021 -0.2015766054391861 0.14610391855239868 0 1 0 254 0 0
-0.2602851092815399 0.17944125831127167 0.019654851406812668 0.9026260381870864 0.4304256442019737 2.727368555004659e-8 0 254 0
0.421041339635849 0.02960777096450329 0.02838483639061451 1 0 0 254 0 254
